# .PCD v0.7 - Point Cloud Data file format
VERSION 0.7
FIELDS x y z rgba
SIZE 4 4 4 4
TYPE F F F U
COUNT 1 1 1 1
WIDTH 1215
HEIGHT 1
VIEWPOINT 0 0 0 1 0 0 0
POINTS 1215
DATA ascii
1.6569999 -0.33842313 0.12317956 12555168
1.636 -0.019385714 0.095156334 16758182
1.689 -0.33676687 0.049064156 13280164
2.266 0.079389893 0.19410855 8947347
1.666 -0.19750865 0.16965911 8748688
1.7029999 0.0045997533 0.068752922 6643050
1.64 -0.35085955 0.044988062 10850717
2.1789999 0.023499519 0.070347294 9800595
2.3789999 0.14104134 0.17300424 8092036
1.636 -0.037900329 0.076632865 16615289
1.675 -0.29335549 0.067622513 16081750
1.6440001 -0.12845352 0.15678211 16616841
1.693 -0.24450313 0.1806239 11251391
2.1489999 -0.17833453 0.051998857 8677742
2.4059999 -0.012950538 0.034867369 9868447
2.513 0.12054603 0.097389214 8289415
1.636 -0.34206897 -0.02392314 10262176
2.483 0.15924998 0.068113022 8026497
1.619 -0.19193667 0.065361701 16739419
1.666 -0.27292514 0.10498546 16757374
2.425 0.15945062 0.33324578 7962244
2.454 0.093911357 0.08319477 8552328
1.619 -0.35160175 0.10202369 11049376
1.6619999 -0.253461 0.10204513 16757374
2.2909999 0.091377452 0.19254442 8486797
2.142 -0.29549572 0.29089099 9342365
1.77 -0.33574784 -0.0087048896 10789292
1.6569999 -0.089285843 0.14998133 16760222
2.513 0.092106409 0.01202951 8223363
2.503 0.14434616 0.011981641 7960450
2.388 -0.0089929374 0.34361145 7763836
1.726 -0.3413538 0.0054704254 10788522
1.653 -0.17191561 0.13090333 16756871
1.653 -0.086397879 0.15764041 16559770
1.806 -0.30169958 0.20144328 11842752
1.6569999 -0.14018486 0.13122009 16628632
2.3789999 -0.10895929 0.0036920549 15913921
1.671 -0.33317789 0.086380787 16217988
1.653 -0.31622675 0.13357703 15028056
1.86 -0.33477721 0.27064559 10920624
1.64 -0.098975457 0.1749694 10720948
2.2739999 -0.26958862 0.28674805 9145756
1.6569999 -0.12411149 0.13390027 15450022
2.2739999 -0.15561996 -0.033252578 16763068
2.425 -0.024814405 0.35285783 8027008
2.3970001 -0.074906327 0.33715224 13019027
1.666 -0.28639236 0.1076802 16555891
1.627 -0.19288509 0.09989617 16756871
1.6569999 -0.12411149 0.13926063 16104088
1.6440001 -0.36766258 0.19401021 10855083
2.3970001 -0.13691056 0.33715224 15582885
2.415 0.057279591 0.07796637 8881295
2.473 0.15860862 0.27984127 8092547
2.3789999 -0.11665162 0.02678008 7558744
1.649 -0.064861111 0.11458313 16766655
2.434 0.17578273 0.011651344 7763584
2.388 -0.15956078 0.034606516 11111568
2.4630001 0.18185906 0.11935474 8289415
1.684 -0.31126702 0.054366611 16071243
2.194 -0.27429271 0.27666014 9409189
1.636 -0.23627117 0.07398665 16747895
2.503 0.1160197 0.003884495 7894659
1.666 -0.34834161 0.037617084 11510701
2.473 -0.069285057 0.027838226 14596780
1.726 -0.33856335 0.019429348 10985386
2.4059999 0.06873557 0.34620148 7830145
2.2739999 -0.19973686 0.0035291016 4137751
1.6799999 -0.01447493 0.1330415 16634318
2.3429999 0.074511684 0.10974988 8160137
2.454 0.17325971 0.13876519 7764863
2.523 0.12102572 0.016158301 8026245
1.6799999 -0.0036106096 0.14662839 16776187
1.671 -0.33317789 0.059352562 16424360
1.666 -0.31063339 0.10229073 16413031
2.352 -0.0012523411 0.30038807 8289930
2.3789999 -0.020497534 0.31922841 8553619
1.6569999 -0.30091861 0.13926063 13912414
2.0369999 -0.28430387 0.003161293 6380908
1.6440001 -0.10453262 0.058393542 15349578
2.3970001 0.056852665 0.24410138 7501182
1.717 0.01851706 0.080427036 4204610
2.415 -0.012998981 0.35530898 8355973
2.454 -0.064785324 0.0038084502 13810352
1.8279999 -0.32015154 0.008750475 10789551
1.6440001 -0.046059296 0.071689293 16739701
1.726 -0.30228752 0.041763626 12662078
1.653 -0.18527775 0.16031411 9529462
2.434 -0.05245208 0.058894936 10131108
1.6569999 -0.24734069 0.12853992 15634799
1.5700001 -0.36126626 0.13194881 10194584
1.666 -0.041288767 0.12654334 15456968
1.8940001 -0.31946242 0.26333877 11052470
2.3340001 0.028944533 0.31319004 8026754
2.454 0.16929229 0.031593662 7828864
1.653 -0.23338147 0.13892445 16775407
1.666 -0.030514982 0.16696438 16760777
1.619 -0.10294301 0.094167553 16430208
2.434 0.17971781 0.30298683 8158340
1.755 -0.33006516 0.011239722 10920624
2.4059999 -0.098526463 0.30339304 9210256
2.325 -0.27187595 0.31198236 9013138
1.717 -0.28405589 0.047100309 15281717
2.493 0.087342896 0.044192955 8552328
1.566 -0.35781407 0.020161236 9602957
1.653 -0.038294155 0.17635636 9460867
2.444 0.14884616 -0.019925915 7960450
2.454 0.15739003 0.24593672 8553098
1.6799999 0.0072537111 0.11401983 14930134
2.4630001 0.098237745 0.091467626 8618119
2.3699999 0.014064527 0.3486883 8947858
2.4630001 0.17389512 0.13529024 8093317
1.61 -0.17264932 0.080623291 16751477
1.623 -0.18191516 0.097025387 16691589
2.483 0.086992547 0.26892418 8092549
1.6569999 -0.097322531 0.13926063 16761500
1.52 -0.35467577 -0.022226878 8749191
1.707 -0.28516123 0.052348096 16735317
2.434 -0.024906499 0.01558831 10263205
1.6619999 -0.32063547 0.14505738 7493228
1.5779999 -0.35290241 0.050944485 10457756
2.503 0.12815961 0.11724453 7698820
1.6619999 -0.054624531 0.061721154 16087946
1.649 -0.19549325 0.13592105 16687226
2.4059999 -0.23466998 0.30339304 9273743
2.2739999 0.053935319 0.22421919 7961733
1.671 -0.252132 0.15665418 16775935
1.666 -0.011660859 0.17504857 12040925
2.0769999 0.0660524 0.16448046 8421512
1.649 -0.35011905 0.082576282 12100271
1.64 -0.35085955 -0.00010750609 9800598
1.614 -0.13132824 0.078212976 16357236
1.6440001 -0.19755836 0.12221316 16491908
1.671 -0.32237178 0.099894904 16762310
1.64 -0.091021225 0.11130508 16762275
2.388 -0.043739364 0.32816121 8552326
1.707 -0.21616796 0.18763965 10591410
1.614 -0.045218796 0.083434224 16753034
2.3080001 -0.21391739 0.052112982 6302751
1.7029999 -0.20740162 0.18995455 9867685
2.2579999 -0.28594449 0.32125336 8750481
2.3610001 0.12088887 0.18315193 8289930
2.3699999 0.048549045 0.24518524 8487307
1.689 -0.26303986 0.057259969 16739941
1.614 -0.17307827 0.075602345 15761247
2.4630001 0.16194922 0.13529024 8028037
1.698 -0.26444149 0.16467838 9144988
1.6569999 -0.33842313 -0.024230221 10394530
2.171 -0.29949635 0.31238714 10330287
1.653 -0.016914725 0.11486108 16765637
2.2579999 0.10101286 0.16055267 8420744
2.388 0.10296777 0.21228436 8815248
1.666 -0.33756784 0.064564437 13016743
2.473 0.14661421 0.27984127 8026756
1.653 -0.16122589 0.17100894 8355986
1.627 -0.17447233 0.065684676 16410202
2.493 0.11555618 0.09661413 8092036
1.6569999 -0.1133959 0.13122009 16761240
2.473 0.1346198 0.29184142 7434106
1.619 -0.034889035 0.0836927 16754316
2.503 0.095786519 -0.00016407791 9670811
2.513 0.12460883 0.10958345 7962760
2.1789999 -0.26184896 -0.021289879 9275299
1.6569999 -0.37324879 0.22234614 10263718
2.1789999 -0.24423485 0.038626734 3547673
1.582 -0.35891226 0.089456618 10391193
2.2019999 -0.25749284 -0.0072677643 3351084
2.0569999 -0.2837697 0.0031923316 4340810
1.693 -0.35946122 0.21074639 10987439
2.3970001 -0.12528476 -0.0040342486 15586749
1.653 -0.17726046 0.13892445 16426374
2.3970001 -0.14078581 0.33327511 12687995
1.7460001 0.038589295 0.11849918 8354708
2.425 -0.17771517 0.34109059 16502185
1.9349999 -0.27632442 0.024911873 2692372
2.3789999 -0.13972861 0.022932077 8678005
1.712 -0.27769306 0.1688053 12238274
1.649 -0.35278499 0.14392275 11249325
1.671 -0.34668553 -0.010920829 10196383
1.653 -0.11846703 0.13892445 16432018
1.6440001 -0.054032929 0.11157655 15386298
1.6619999 -0.31526151 0.12086299 16145759
2.3970001 -0.090407379 0.32552087 6375502
2.4630001 -0.04113112 0.035693403 10196901
1.6569999 -0.091964737 0.12585974 16763814
2.503 0.087693252 -0.01635837 8552841
2.3789999 -0.028189862 0.31922841 8093065
1.6799999 0.0045376308 0.13032411 16776954
2.3 -0.1871468 0.0072896746 4400674
2.4630001 0.15000331 0.25480643 8027522
1.929 -0.32224724 -0.015727123 11184310
1.796 0.030983515 0.098652564 7293797
1.619 -0.16052714 0.078455269 16355945
1.543 -0.357548 0.072276592 10325399
1.796 -0.32906523 0.005692285 10987443
1.671 -0.33047637 0.059352562 15165300
1.582 -0.35379696 -0.0052214367 9012362
1.6569999 -0.24734069 0.10709849 16031090
1.698 -0.23973486 0.043832611 12534605
1.623 -0.34984651 0.073398739 11245993
2.4630001 -0.069004893 -0.032032441 10065577
2.503 0.079599977 -0.028504089 7894911
1.653 -0.078380592 0.1549667 16758688
1.653 -0.051656302 0.17100894 15366803
1.796 -0.25647476 0.20323288 10723766
1.844 -0.29314154 0.023740306 3152935
2.352 0.040575292 0.33843139 8553098
1.6059999 -0.35137495 0.083020672 12034737
2.3610001 -0.23791501 0.29771861 8617100
2.388 -0.18658578 0.04233164 7102825
1.627 -0.22971061 0.070947982 16744047
2.4059999 0.1037439 0.33452645 7895940
1.693 -0.32935315 0.046441946 14439528
1.6569999 -0.089285843 0.14462098 16497047
2.21 -0.16910486 -0.018018115 9398107
2.434 0.14036697 -0.027718319 8157829
2.05 -0.26291844 0.25187027 9342883
2.415 0.037757766 0.034997795 9209488
1.7029999 0.0018464887 0.068752922 8353668
2.425 -0.1933973 0.34893543 14528908
2.473 -0.05329252 0.011838033 10394016
2.3340001 -0.27670178 0.32829091 8749191
2.503 0.12006634 0.003884495 8289417
2.503 0.067460068 -0.03255266 8815498
2.4059999 -0.086857021 -0.0079410719 5912373
2.4630001 0.16194922 0.13130637 8290696
1.623 -0.18453909 0.097025387 16560003
1.666 -0.057449445 0.13732229 15051928
1.7309999 -0.33394706 0.19027783 12106438
2.425 0.1829738 0.16065979 8158083
1.7460001 -0.3509548 0.25405765 10526892
1.649 -0.1981592 0.053236663 15871544
1.707 -0.29895991 0.049587041 15936577
2.513 0.13273443 0.01202951 8223624
1.649 -0.37677866 0.22660713 9211546
2.425 -0.11890718 -0.023693418 4402753
2.4630001 0.13009349 0.3026129 7894911
1.806 -0.34549639 0.26570931 10526892
1.649 -0.35545096 0.029231522 10918053
1.717 -0.33679795 -0.011221462 10657963
2.473 0.11862727 0.3078416 8355719
1.6440001 -0.032769904 0.11423571 16776687
2.043 0.058365241 0.11552457 8881293
1.653 -0.051656302 0.17903008 10785452
2.3970001 0.056852665 0.3100124 8158342
2.5439999 0.13437183 0.09859059 7960965
2.2579999 -0.24578854 0.036374863 3350041
2.513 0.092106409 -0.012358977 8289156
1.972 -0.29436079 0.23909722 10789811
1.59 -0.35301551 0.059047312 9667721
2.352 -0.046882488 0.29277939 9079183
2.388 0.052778486 0.30498582 8223876
1.653 -0.081053019 0.1549667 16362648
2.352 -0.039277464 0.29658371 8552328
2.21 0.059563227 0.11066924 9144465
2.4059999 -0.25800887 0.34620148 12228220
1.6569999 -0.30895528 0.12853992 16734293
1.653 -0.34562346 0.1228822 11508393
2.4059999 0.12708279 0.3267431 7763582
1.712 -0.35519189 0.20757325 10724267
2.3699999 -0.21200064 0.038179111 3807506
1.653 -0.073035732 0.16031411 16491665
1.566 -0.36034584 0.086018883 10194584
2.533 0.12969568 0.04080493 7894911
1.6440001 -0.21882139 0.1089174 16362372
2.425 0.04967571 0.035142712 9078674
1.6799999 -0.37842968 0.24445409 9737374
1.649 -0.091520734 0.17326237 10711183
2.352 -0.26362568 0.30799672 8946318
1.636 -0.12253856 0.10838739 16498070
1.666 -0.30255303 0.086122319 16743283
2.523 0.11694675 0.061048448 8158340
2.473 -0.013311172 -0.028162448 9210777
2.4059999 0.15820131 0.20610113 8158859
1.631 -0.34893411 -0.0080212858 9341074
1.649 -0.34478712 0.098579705 13219262
1.653 -0.14519131 0.13892445 16693911
2.425 -0.11498665 0.35285783 15383706
2.4059999 -0.15687369 0.3267431 5649450
1.6440001 -0.12047989 0.16741872 10048874
1.666 -0.31063339 0.11037493 16411234
1.8710001 -0.27323475 0.027114235 3151894
1.653 -0.24139875 0.13625075 15387072
1.726 -0.33856335 0.0054704254 10788522
2.21 -0.25842834 0.010579076 3154206
2.473 -0.037299979 0.047838468 10328487
1.671 -0.36289471 0.19989935 10395302
1.649 -0.080856882 0.18126409 9935796
2.3699999 -0.21583225 0.042012557 5976357
1.602 -0.35308978 0.098361194 11969712
1.888 -0.3092933 0.22585873 10987960
1.712 -0.34688845 0.016502613 10854054
2.503 0.15243943 0.024127359 8486537
1.675 -0.25544354 0.11638978 16427641
1.791 0.033792794 0.15341942 10392483
2.444 0.18045616 0.24098139 7500928
1.653 -0.3670029 0.20844086 10789803
1.712 -0.30537122 0.046963148 16071247
2.454 0.022497851 -0.0041301819 9737115
1.666 -0.0062739672 0.12384861 16776701
2.3789999 -0.13588244 0.022932077 10651534
2.388 -0.12867507 0.026881393 13678514
2.21 -0.2012613 -0.021592764 8675159
1.586 -0.35725564 0.028114732 9931669
2.4630001 0.098237745 0.31854841 7895938
1.531 -0.35229212 -0.012482232 8747907
1.6619999 -0.34213132 0.08053901 12757941
1.649 0.0017879389 0.082576282 10918055
1.6619999 -0.062685467 0.12623952 16504254
1.6440001 -0.027454145 0.11689486 16377041
1.6619999 -0.30182663 0.091292068 16742765
2.425 0.15553008 -0.031538233 8026756
2.1129999 0.039868325 0.20492664 7894659
2.4059999 -0.14520425 0.050434075 11046792
1.631 -0.34629723 -0.013297532 8946570
1.6799999 -0.34040454 0.046085332 11509925
1.9 -0.32047442 0.26724625 10854580
1.546 -0.35824317 0.079919033 10259607
1.77 -0.28137773 0.034239419 4067347
1.689 -0.32857499 0.051796094 15155281
1.693 -0.022798231 0.14776301 16370886
2.3699999 0.0025696878 0.33718798 7960963
2.425 0.16729169 0.35678023 8093317
1.7309999 -0.21361016 0.044684481 10307651
2.2019999 -0.29665288 0.32040945 8553619
1.675 -0.04692781 0.13806413 15978164
1.666 -0.26215136 0.086122319 16687477
1.6799999 -0.19102013 0.054237474 15740473
1.781 -0.32631692 0.011406236 10987441
2.425 -0.12282772 -0.023693418 4205374
1.698 0.018312152 0.11798797 16579838
2.415 -0.071564458 0.34749651 16702397
2.1199999 0.081129618 0.1541694 8619661
1.649 -0.19016132 0.1332538 16227964
1.631 -0.15380639 0.057931792 15410744
2.388 0.14929633 0.18524642 8355208
1.627 -0.17184193 0.065684676 16739679
1.666 -0.31332684 0.1076802 16739433
1.5779999 -0.35545358 0.06881126 10390680
2.483 0.12713556 0.28498906 8815762
2.3789999 -0.10895929 -0.0001559494 15979199
2.415 -0.016903346 0.015466626 10263205
1.9 -0.32661796 0.27339271 10657712
1.671 -0.28184882 0.091786437 16754802
1.671 -0.28725189 0.12151748 16552044
1.755 -0.3499265 0.2241416 10529202
1.6799999 -0.29423118 0.15478054 15365761
1.619 -0.13958746 0.070599131 16087140
2.194 -0.22108664 -0.024985205 10649727
2.1559999 -0.29394141 0.28581762 9144473
1.817 -0.34172559 0.2673277 10068396
1.653 -0.16924317 0.14427187 15963513
2.493 0.083312429 0.27403963 9079444
2.473 -0.041298114 -0.012162256 9868707
1.6569999 -0.23930401 0.1419408 16645370
1.653 -0.22001931 0.14427187 16749202
1.562 -0.3569001 0.010003673 9273481
1.9349999 -0.31386453 0.27842888 10395823
2.4059999 0.037617054 0.042650722 9735832
1.755 -0.33290252 0.011239722 10789038
1.806 -0.34257659 0.24526103 10066339
1.666 -0.04667566 0.14810123 16565671
2.425 0.069278374 0.07044439 8946318
1.666 -0.20828243 0.17235385 10919605
2.444 -0.10798507 -0.031785339 4798803
1.698 -0.36052284 0.22235477 10264234
1.649 -0.088854767 0.12258485 16763562
1.582 -0.34612402 -0.012898035 8814984
1.9119999 -0.313225 0.0060599381 11317184
1.684 -0.33032486 0.16604446 11644601
1.693 -0.32114184 0.16967028 10986930
1.653 -0.3563132 0.01593389 10325402
2.454 0.10184619 0.32532305 7896197
1.985 -0.27062789 0.24388415 10065836
2.3970001 0.16148479 0.20145306 8027785
1.918 -0.29870364 0.22324291 11448509
1.562 -0.35942543 0.080746137 9996435
1.923 -0.31502703 0.27048132 10592948
1.594 -0.35132656 0.07724379 11771565
2.2739999 -0.22547172 0.010885438 3415064
2.473 -0.045296248 0.015838081 9736351
2.4630001 0.14602135 0.29862905 7830147
2.388 0.060499914 0.34361145 7895938
1.5779999 -0.35800475 0.086678036 10456473
2.0039999 -0.30885711 -0.0098557062 11448257
2.05 -0.29606107 -0.023345338 11381437
1.86 -0.25057873 0.035980407 3873566
2.3970001 0.15760954 0.17819035 8289415
1.653 -0.22269174 0.14694558 13659506
1.7029999 0.021119341 0.11282624 16775933
2.434 0.12462664 0.1336973 8026756
1.775 0.0076638912 0.18075925 9342632
2.4630001 -0.0052934112 -0.020080822 9407896
2.415 0.17050618 0.16390352 8092547
1.64 -0.011478878 0.087430954 16424106
2.3970001 -0.098157912 0.32552087 4992819
1.636 -0.032610439 0.079279073 15565422
2.4059999 -0.15687369 0.32285142 5782074
2.4059999 0.0492865 0.28782633 8422284
2.434 0.16397747 0.22818448 8158081
2.493 0.15989134 0.11274372 8026243
2.434 -0.072127491 0.01558831 13940896
1.6569999 -0.11875369 0.13658045 16367254
2.25 -0.0011980303 0.27280363 8223365
1.6799999 -0.26435429 0.13575888 16752247
1.562 -0.3543748 0.052954454 9734545
2.098 -0.28264204 -0.027285449 11907532
1.666 -0.30793995 0.094206519 16151141
1.64 -0.1758664 0.11926312 16758413
2.4059999 0.01816798 0.023192339 9013649
2.3970001 -0.11365896 0.32164374 6640216
1.7029999 -0.35332465 0.18995455 10396072
1.689 -0.2848849 0.15834166 13399946
1.698 0.015566972 0.090523019 11639728
1.653 -0.20398475 0.14961928 15427696
2.266 -0.27963063 0.28940448 8817820
1.707 -0.29068071 0.057870198 16737623
1.6569999 -0.22323063 0.15266152 10708085
1.6569999 -0.15090044 0.13390027 16561292
2.2909999 0.0061879242 0.062846132 9737115
1.698 -0.29738367 0.060311578 16202823
2.493 0.083312429 0.30629882 8422284
1.6619999 -0.29376569 0.12086299 16152673
1.653 -0.23872632 0.10683995 16687488
1.8710001 -0.31558299 0.23593034 10855602
2.2420001 -0.22592354 0.057875566 5509903
1.684 -0.0036192061 0.16876832 8223124
2.434 0.17971781 0.3423565 7172217
1.796 -0.30583629 0.023122337 6378336
1.707 -0.36519346 0.24562176 9673125
2.2579999 -0.23848745 -0.00014801754 3348244
2.2579999 -0.23848745 0.0071565588 3678238
1.712 -0.30260339 0.17434357 11580354
1.985 -0.3123472 -0.029026547 11054012
2.434 0.18365289 0.23999538 7632514
1.64 -0.011478878 0.092736311 16758210
1.6569999 -0.33574423 0.13390027 13150641
1.877 0.05665746 0.13649809 10526126
1.61 -0.04770964 0.091039918 16560783
2.194 -0.24236906 -0.021436436 10059383
2.234 -0.25039956 0.0034670243 2626581
2.3080001 -0.15794674 -0.015083945 14134425
2.0840001 -0.28749442 -0.016990839 11973833
1.64 -0.34820816 0.12722117 11509416
1.877 -0.28928384 0.21543474 11316922
1.722 -0.11227618 0.052808095 13799819
1.653 -0.38036504 0.24319907 9474454
1.689 -0.29580742 0.065455779 16473689
1.666 -0.26215136 0.075343378 16750699
1.801 0.03980488 0.11057959 10326688
2.493 0.095403835 0.27403963 8092551
1.546 -0.35574371 0.037408207 9274251
1.631 -0.061516244 0.10541801 16368553
1.623 -0.06121451 0.10227576 16763822
2.3 -0.22061279 0.051932346 4461065
2.415 -0.14184304 0.35140273 14595210
1.6569999 -0.10535921 0.056175113 14041164
1.653 -0.062346015 0.17368266 10835060
1.61 -0.071135834 0.083227448 16754311
1.614 -0.1469845 0.075602345 16486512
1.562 -0.3543748 0.042848386 9274252
2.415 0.072897054 0.33577779 7764100
1.5779999 -0.35290241 0.058601674 9667723
1.666 -0.29177925 0.09690126 16752514
2.513 0.092106409 0.020159004 8684427
2.21 0.091719672 0.16428897 8684686
1.649 -0.24614653 0.077241801 16552819
2.25 0.046090864 0.079918168 8947345
2.4059999 -0.12186535 -0.019616101 3019809
1.689 -0.27123174 0.062723845 16218197
1.614 -0.12089073 0.086044855 16426618
2.503 0.087693252 0.0079330681 8683914
1.61 -0.37047049 0.18478952 9933205
2.3970001 -0.1214095 0.30613527 9277075
1.6569999 -0.33574423 0.1178192 16424872
1.619 -0.13958746 0.091548838 16691080
2.0039999 -0.30561724 -0.0098557062 11316671
1.614 -0.36878154 0.17480613 9472401
2.434 0.089210898 0.33448258 8289928
1.883 0.053794298 0.14607161 12500169
1.619 -0.042741418 0.081073985 16684416
2.4630001 -0.04113112 0.011790164 10920625
1.627 -0.12449484 0.097264513 16628367
2.2260001 -0.18112557 -0.014548034 8148815
1.653 -0.15855345 0.17368266 7895948
2.493 0.055099148 -0.0082282182 8552841
2.4059999 0.16209112 0.20610113 8027272
1.9349999 -0.23878431 0.037431229 3809564
1.627 -0.35070875 0.1262127 11642030
1.6569999 -0.2339462 0.14730117 16711423
2.3970001 -0.13303529 0.29838103 9802395
1.693 -0.18976118 0.054657169 15412024
2.473 -0.05329252 0.015838081 10920360
1.6569999 -0.13214818 0.13122009 16174011
1.684 -0.033567224 0.14697751 16371892
1.653 -0.1532086 0.15764041 15099509
1.653 -0.16657074 0.14159817 16755594
1.675 -0.26085955 0.064913221 15958875
2.388 -0.25221792 0.32816121 13610136
2.425 -0.20123836 0.34501299 15581083
1.666 -0.29447269 0.10229073 15563619
2.444 0.17650492 0.35957563 7895168
1.6440001 -0.099216864 0.17273702 10321049
1.684 -0.25953862 0.059814312 16412508
2.454 -0.009241486 -0.012068814 9671068
2.3169999 0.04746335 0.22845903 8487309
1.6619999 -0.31526151 0.11548646 16541539
1.631 -0.21709105 0.09750364 16755340
2.4059999 0.12708279 0.33063477 8355719
1.666 -0.34026128 0.15079597 10526116
1.888 -0.32150275 -0.0062313983 11184569
1.666 -0.065529779 0.13732229 16368804
2.2579999 -0.23848745 0.0035042707 3743772
1.614 -0.16264077 0.0808236 16553582
1.698 -0.32483548 0.041086115 12531020
2.493 0.07525149 0.0038689757 8421255
1.751 0.030207202 0.10750964 13939402
1.9349999 -0.28883779 0.23148128 10987706
1.649 -0.099518619 0.15725894 16755347
2.3789999 0.033348754 0.049868107 9407637
2.415 -0.11060811 0.34359026 16241585
1.6619999 -0.078807347 0.13430431 16697257
2.388 0.014171346 0.034606516 9473943
2.4059999 -0.086857021 -0.0001577193 10515820
2.03 -0.23737986 0.039268941 3874588
2.142 -0.27125469 -0.0070697325 5392213
2.3699999 -0.25797999 0.32185417 10390413
2.1789999 -0.20900664 -0.028338892 9661543
1.6799999 -0.32682416 0.16293268 10591660
2.3169999 -0.18853006 0.014838995 4927026
1.619 -0.14482237 0.088930123 16755590
1.6440001 -0.12845352 0.17273702 10523305
1.636 -0.16750261 0.10838739 16759695
1.649 -0.0035439851 0.095912471 13073552
1.649 -0.22748479 0.12525208 16489600
2.3970001 -0.1097837 0.33327511 10123873
1.653 -0.15053616 0.13892445 16034185
1.636 -0.34206897 -0.021276928 9736602
1.671 -0.34128249 -0.013623652 10526118
2.473 -0.061288789 -0.036162544 9934504
1.855 -0.33987528 0.27291849 10001322
2.0699999 0.018977404 0.22754194 8224135
1.566 -0.35528228 0.065754995 9535626
1.671 -0.20350446 0.17827676 10198190
1.524 -0.35560912 0.068921551 9601930
1.726 -0.35530606 0.24277212 9804715
2.473 0.070649654 0.035838321 8684686
1.653 -0.34027863 0.098818831 12755372
2.21 0.027406778 0.23935659 9080212
2.2260001 -0.25670049 0.02505778 2957338
2.5439999 0.14671059 0.057441693 8289926
1.775 -0.3424356 0.2180828 11382201
1.712 -0.34688845 0.19095841 10397101
1.6440001 -0.11516413 0.16210042 15032948
2.473 -0.0093130376 -0.032162495 9210777
1.623 -0.34984651 0.078649104 11378090
1.693 -0.33482733 0.043703537 13672875
2.493 0.11555618 0.29420161 8289928
2.444 0.057967421 0.055183765 9012881
1.684 -0.03628977 0.14425366 16769220
2.3340001 -0.25783473 0.29053873 8552847
1.7309999 0.029862173 0.12308089 10788538
2.503 0.067460068 -0.01635837 8618634
1.666 -0.3052465 0.099595994 16151142
2.023 -0.30524418 -0.016493505 11513536
2.4059999 -0.2385598 0.33452645 16766381
2.434 0.1128214 0.24393235 7895170
1.6440001 -0.21616352 0.12221316 16555640
2.513 0.059603982 -0.024553219 8684427
1.64 -0.37207085 0.21741229 10394791
2.2579999 -0.22023475 0.0035042707 3283731
1.631 -0.058879383 0.10805614 16632503
1.6569999 -0.33306536 0.1178192 14443370
1.6059999 -0.35397142 0.054446127 9930895
1.6440001 -0.1071905 0.16741872 11230068
2.4630001 0.074345939 0.25082257 7895938
1.9119999 -0.30395153 0.0091525754 9473951
2.4630001 -0.025203248 -0.012113076 9671070
1.6569999 -0.29823971 0.13658045 16338015
2.4630001 0.12212954 0.31456453 8224133
1.566 -0.36034584 0.10628278 10259094
1.918 -0.30180448 0.22634526 11185085
1.6569999 -0.23662511 0.053494938 15085361
1.631 -0.16435383 0.060569916 15349816
2.3340001 -0.21255378 0.026273523 5453871
1.6569999 -0.12679037 0.1419408 16497049
1.539 -0.35662109 0.024792258 9011079
2.444 -0.068472579 -0.015972774 11181738
2.434 0.17184764 0.23212145 7960961
2.425 -0.0091322754 0.0076858527 9671322
1.653 -0.091742732 0.152293 16758170
1.631 -0.087884858 0.10277989 16694426
1.666 -0.30793995 0.1076802 16148574
2.493 0.10749524 0.10467892 5854047
2.283 -0.18945451 0.0035430691 4005912
2.473 0.15461048 0.28384131 8224135
2.4059999 -0.10630609 -0.019616101 2690332
1.796 -0.33196887 0.21775793 11316408
1.649 -0.35278499 0.029231522 10391709
1.619 -0.11341285 0.091548838 16560769
2.434 0.17184764 0.30692381 8290698
2.3970001 0.15760954 0.20145306 8224652
1.614 -0.1704689 0.086044855 16292722
2.3789999 0.13719517 0.34616444 7960961
2.3610001 -0.27226859 0.33590752 8880263
2.03 -0.3063004 0.28881502 10657966
1.649 -0.088854767 0.18126409 10196914
1.985 -0.0491946 0.060873445 11375516
2.4059999 -0.2385598 0.31895974 6703425
1.6569999 -0.13214818 0.12585974 15581355
2.434 0.17971781 0.31479773 8817040
1.6799999 -0.26707038 0.12760673 16754804
1.765 -0.33479938 0.20543469 10725299
1.631 -0.34893411 0.094865516 11968938
2.3699999 0.10219163 0.34485486 7895168
2.266 -0.16239944 -0.018474683 15713459
1.631 -0.22500163 0.081674904 16747880
1.64 -0.36676803 0.18027477 10722214
1.614 -0.04260942 0.083434224 16752518
1.6440001 -0.10984837 0.17007786 8936824
2.3970001 0.029725812 0.030859822 8618634
2.3610001 0.0025599294 0.32826972 8026756
2.3699999 -0.043409668 0.31035385 8551562
2.434 -0.20198523 0.35810438 13014638
1.649 -0.078190923 0.17326237 10379132
1.631 -0.18544872 0.10805614 16758668
2.415 -0.075468823 0.34749651 16373171
2.473 -0.05329252 -0.020162351 10328490
2.0039999 -0.30561724 0.25918433 10528436
1.6619999 -0.36094016 0.17731656 11051433
2.164 -0.18307787 0.055862054 14203319
2.388 -0.063042931 0.32816121 9603468
1.631 -0.18017499 0.10541801 16758923
1.64 -0.23950027 0.07416755 16154213
1.6440001 -0.21616352 0.12753145 16554872
1.631 -0.2276385 0.089589268 16552819
1.717 -0.32569435 0.03321417 11960975
1.602 -0.35308978 0.093178764 11311268
2.4630001 0.18584102 0.13130637 7698043
2.415 0.0065228445 0.0076541584 9671320
1.598 -0.35479167 0.087776616 11245221
1.947 -0.30636775 0.24551383 10659252
1.712 -0.2666218 0.17157443 11842501
1.627 -0.21918903 0.081474595 16617577
2.4630001 0.13805741 0.30659679 8158340
2.3080001 -0.19899188 0.014781355 3875358
1.693 -0.33482733 0.16967028 10921135
1.9910001 -0.27788365 0.022412417 2627608
2.493 0.11152571 0.10064653 9605275
1.61 -0.05551837 0.085831605 16755857
2.503 0.15243943 0.06866166 8092290
2.473 0.14261608 0.26784113 7697791
2.3429999 0.01769226 0.29923862 8355210
1.675 -0.26627553 0.070331812 16356707
2.4059999 0.12319298 0.3267431 7829375
1.6569999 0.0017966129 0.07493636 10063259
1.7309999 -0.35353678 0.22947603 10067369
1.671 -0.0062927967 0.16746546 8617628
1.781 -0.3464725 0.23610446 10526890
1.689 0.0072925701 0.14195003 13421772
2.388 -0.078485787 0.30112326 9210511
2.1270001 -0.2590389 0.034264542 3547935
2.5439999 0.12614599 0.07801614 8157829
1.614 -0.35573465 0.015557953 9931412
1.52 -0.35467577 -0.019768296 9077643
1.9349999 -0.23878431 0.043690909 4659218
1.675 -0.33668345 0.073041104 16294060
1.623 -0.037599161 0.081274286 15698290
1.6799999 -0.30781159 0.062389612 16205650
2.3970001 -0.14853634 0.042491179 12032919
2.454 0.18119453 0.25387534 6711412
2.4630001 0.15398529 0.13529024 8553100
2.533 0.12150541 0.065387517 8092547
1.566 -0.36034584 0.12401368 10720928
2.454 0.18516195 0.13876519 8158594
1.781 -0.31192008 0.19865476 11251132
2.1340001 -0.27714175 -0.017398488 9803183
1.666 0.0071932636 0.09690126 16629710
1.666 -0.3294875 0.1157644 16277862
1.781 -0.0470182 0.063259669 14127252
2.3340001 0.07422547 0.2188096 8158342
2.25 -0.28129378 0.29827908 8686232
2.444 0.15279742 -0.012019633 7829377
2.105 -0.30060101 0.2994855 9014168
2.2019999 -0.16137269 -0.032199726 16700863
1.755 0.02460154 0.09640047 10511237
2.473 -0.013311172 -0.036162544 9343133
1.6799999 0.0045376308 0.13575888 16579323
2.3970001 -0.0051515661 0.046368301 9999774
2.1270001 0.047009982 0.099632092 9144213
1.726 -0.25764033 0.044555411 14105927
1.531 -0.35476732 0.012281511 9405578
1.623 -0.040223092 0.081274286 16750722
2.0369999 0.025261361 0.20744035 7498870
1.64 -0.16526075 0.11395776 16562826
2.1199999 0.074274749 0.16445662 8487307
2.415 0.068992689 0.33577779 7896199
1.7309999 0.027063642 0.10628166 14463436
1.558 -0.35346732 0.0074580088 9339274
1.751 -0.33214375 0.01971077 11118257
2.3699999 -0.093220636 0.022845322 4790567
1.653 -0.23070903 0.14159817 16775667
1.6619999 -0.35825318 0.1665635 11115945
1.86 -0.25960001 0.21950062 10263986
1.77 -0.29568565 0.031376466 4266274
1.539 -0.35910922 0.027281571 9273992
2.3610001 0.11707181 0.16023859 8486283
2.415 -0.052042633 0.34749651 8880264
2.21 0.084573798 0.17501292 8355723
1.666 -0.1894283 0.17774332 9801629
1.6619999 -0.25077403 0.088603809 16291952
2.473 0.0066795009 -0.036162544 9078931
1.801 -0.34453985 0.25623441 10527406
2.473 0.15461048 0.26384106 7962242
2.352 -0.2712307 0.32321405 9209488
2.473 -0.05329252 0.047838468 10131362
2.415 0.18221928 0.22249702 8027007
1.6799999 -0.36213318 0.18467171 10920106
2.434 0.18365289 0.23605841 7632768
1.6619999 -0.22121724 0.16925177 10066604
1.76 -0.34807804 0.21908662 10331568
1.671 -0.28184882 0.089083612 16359275
2.454 0.070106857 0.25387534 7764352
1.675 -0.28793949 0.067622513 16746343
2.4059999 -0.090746835 0.3423098 15450788
1.64 -0.35085955 0.047640745 10916510
1.623 -0.34984651 0.076023921 11180457
1.6569999 -0.20983614 0.16070205 8350596
2.3789999 -0.16280559 0.053716112 12953000
1.6799999 -0.27521864 0.13032411 16752252
2.388 -0.12095364 0.030743955 8611683
2.3699999 0.12134969 0.15318252 8486794
1.675 -0.26085955 0.146192 14842491
2.187 -0.24513154 -0.02490549 9401716
2.3789999 -0.097420804 -0.0001559494 13349023
1.653 -0.15588103 0.16566153 9663107
2.4630001 0.082309872 0.31854841 8552841
2.03 -0.28004494 0.016284432 2759194
2.1129999 -0.23683719 0.044292271 4071709
2.194 -0.26365149 0.014051254 3286303
2.2019999 0.073587634 0.11383034 8881293
2.493 0.10749524 0.30629882 8290698
2.388 0.14929633 0.1968341 8224137
2.0699999 -0.29225627 -0.016876696 11513023
2.3699999 0.12901291 0.34102142 7960704
1.77 -0.34719416 0.23178324 9935523
2.4059999 -0.19577183 0.30728471 9538971
1.636 -0.10402394 0.071340442 16283490
2.283 -0.23743697 0.01831397 3152662
1.631 -0.370029 0.20566669 10393762
2.434 0.17578273 -0.0040965211 8224133
1.726 -0.3413538 0.0026786409 10656936
2.01 -0.30978185 0.28596956 10460074
1.7029999 -0.22116794 0.18719997 12235463
2.2579999 -0.22753583 -0.0038003058 3480597
2.483 0.16727859 0.1163077 7631228
2.105 -0.26997232 0.0236957 2825239
2.533 0.1419811 0.036707833 8289669
1.666 0.012580155 0.086122319 10127007
1.64 -0.019433113 0.084778272 16753807
2.325 0.01755634 0.2818971 8553102
1.6569999 -0.33842313 0.12853992 12098728
1.817 -0.33878803 0.23499897 10855345
1.554 -0.35758457 0.067764699 9996434
1.666 -0.29716614 0.1454065 11612743
2.1789999 -0.26537177 0.0033816677 3351331
1.796 -0.31164354 0.20613788 11447992
1.712 -0.31921029 0.044194009 15152972
1.623 -0.12418877 0.094400205 16495752
1.614 -0.11567198 0.0808236 16621435
1.6569999 -0.22590952 0.1660624 9934502
1.6569999 -0.36521211 0.18482365 11116972
2.444 0.0066011725 -0.0080664922 9342357
2.473 -0.037299979 -0.0041621593 10197415
1.707 -0.28792098 0.055109147 16670288
1.666 -0.19212174 0.17774332 9999522
1.985 -0.052403778 0.067294873 14792116
1.806 -0.3221381 0.21604919 11710905
2.444 0.15279742 0.14215286 8224135
2.523 0.14957851 0.065129369 8223876
1.619 -0.15790968 0.073217846 16748396
1.614 -0.16525014 0.075602345 16750709
2.415 0.049470861 0.046716496 8815759
1.653 -0.083725445 0.1549667 16757149
1.947 -0.31895873 -0.022172377 10724786
1.64 -0.1334438 0.11130508 16629921
2.3970001 0.17311059 0.2092073 7896191
1.666 -0.17596108 0.18313278 9473700
1.649 -0.12084631 0.14658999 16692115
1.849 -0.30290431 0.020813942 4273221
1.9119999 -0.28849575 0.018430488 2693663
1.64 -0.13874663 0.11395776 16695965
2.493 0.043007739 -0.016293013 8947086
1.61 -0.045106728 0.093644075 16759704
1.817 -0.045031026 0.06453836 12089215
1.631 -0.22236477 0.057931792 16402250
2.444 0.14094368 0.24493453 8158340
2.142 -0.26432869 0.017182885 2956825
1.653 -0.34027863 0.090797707 12493997
2.388 -0.090067931 0.026881393 7821406
2.444 0.061918672 0.29632536 8553616
2.4059999 0.080405019 0.35009316 8026497
2.3970001 -0.086532116 0.32164374 7233129
1.7029999 0.018366076 0.12384457 16711679
1.627 -0.13764681 0.068316333 16743791
1.698 -0.30836439 0.17017138 11844296
2.473 0.110631 0.10783919 9210519
1.985 -0.045985419 0.064084157 11111836
1.693 -0.33756444 -0.016541425 10262946
1.653 -0.31622675 0.13625075 13062495
2.098 0.01245037 0.064338781 9736086
2.3970001 0.13048269 0.14717339 8421255
1.619 -0.11079539 0.086311407 16689788
2.434 0.17184764 0.30298683 8290698
1.614 -0.1130626 0.088655479 16558972
1.712 -0.32751372 0.035886589 11955325
1.693 -0.34577572 0.035488315 11445420
1.972 0.043584242 0.098751016 8422030
1.6799999 -0.37299749 0.23630194 9803935
1.653 -0.070363306 0.17903008 10590127
2.533 0.13379082 0.04080493 8092290
1.7029999 0.018366076 0.13761748 14736629
1.86 -0.30771342 0.21950062 11316923
2.3789999 -0.15895942 0.053716112 12755103
1.61 -0.1388115 0.078019135 16488820
2.3699999 0.12901291 0.16851631 8486796
1.6569999 -0.31431308 0.13122009 16207182
2.3970001 -0.25316849 0.33715224 16503224
2.2019999 -0.22901279 0.04971958 4332056
2.2909999 -0.22345342 0.051729135 4066566
1.6619999 -0.084181301 0.14236911 16760992
1.855 0.0020112956 0.065888092 7629429
1.666 -0.29985958 0.099595994 16743540
1.7410001 -0.29084107 0.18292892 11579067
1.6569999 -0.24466179 0.1419408 16776442
1.8329999 -0.29435629 0.023598688 2363419
2.3789999 -0.055113006 0.31922841 8880012
1.707 -0.33483639 0.035781782 11703973
1.6569999 -0.030350136 0.17142276 13661590
1.636 -0.20717679 0.10574118 16426628
2.444 0.010552422 -0.0080664922 9342357
1.619 -0.029654115 0.0836927 16688268
2.3970001 -0.086532116 0.3138895 8749705
2.2909999 -0.24567677 0.033200808 3284248
1.619 -0.037506498 0.096786261 16233623
1.574 -0.35964197 0.099187948 11378857
2.0569999 0.022183804 0.069735795 9932182
2.234 -0.25039956 0.035988241 3678236
2.523 0.10470983 0.040643837 8552330
1.7359999 -0.11599561 0.053237431 14062477
2.0569999 -0.28709528 -0.0067891879 9737388
1.684 -0.34938267 0.035299659 11247784
2.4059999 -0.21133108 0.30728471 9142668
1.717 0.021292958 0.12763989 16776703
2.425 0.17513275 0.062599577 7105393
2.454 0.11374845 0.31738439 7632766
2.425 -0.024814405 0.062599577 10327973
2.425 0.092801563 0.23910797 8223882
1.7359999 -0.31245872 0.036389675 9320507
2.425 0.10064263 0.33324578 8554127
2.3169999 -0.17729229 0.0073435549 4926506
1.9119999 -0.32558963 0.27821201 10460333
2.4059999 -0.23078017 0.32285142 9596250
2.388 -0.0051322235 0.34361145 8355973
2.503 0.095786519 -0.020406943 8553098
1.855 0.049995378 0.1108947 9078931
2.142 -0.1154196 0.058758799 14532794
1.6619999 -0.18091255 0.17731656 9077142
1.717 -0.30071127 0.17485276 11843526
2.483 0.10706405 0.27695662 8224137
2.3970001 -0.0051515661 0.038614061 10132130
2.454 0.16929229 0.08319477 8355462
2.425 -0.11106612 -0.027615827 3349812
1.6569999 -0.059817988 0.15266152 16756377
2.21 0.070282042 0.19646081 8486794
2.3970001 0.13435794 0.33327511 7895938
2.434 0.16791256 0.06676887 7895168
2.415 0.15098436 0.21468455 7961993
1.614 -0.055656303 0.083434224 16095618
1.76 0.044589549 0.11944935 5393761
1.649 -0.22748479 0.12258485 16489851
2.425 -0.11498665 -0.023693418 2822953
2.415 -0.25116527 0.34749651 16501922
1.649 -0.11284842 0.11991761 16697248
1.722 -0.3572666 0.22828291 10067369
2.3789999 0.029502591 0.053716112 9210517
1.849 -0.32980806 0.25409132 10986930
1.636 -0.13311833 0.10574118 16760986
2.3970001 0.11498163 0.21308441 8618121
2.473 0.1226254 -0.012162256 7894659
1.6569999 -0.16697381 0.17410295 8291223
2.3789999 -0.028189862 0.065260127 10459304
2.454 0.16929229 0.24196741 7764354
2.493 0.10749524 0.28210443 8355210
2.4630001 0.18185906 0.12732249 8553098
1.6569999 -0.12946928 0.13390027 16773858
2.434 0.17184764 -0.011970453 7829375
1.781 -0.3291963 0.21017773 11053751
2.171 -0.00817574 0.063065886 9933215
1.546 -0.35574371 0.04240948 10260634
1.614 -0.35312527 0.11998299 11377577
2.473 0.15061235 0.28384131 8289928
2.388 -0.074625075 0.32043609 9341328
1.693 -0.33209023 0.16967028 11776187
2.3 -0.28754476 0.33466926 8485769
1.666 -0.29985958 0.10498546 16742506
1.997 -0.23997813 0.045090824 4921878
2.3789999 -0.062805332 0.31153241 8684175
1.653 -0.067690872 0.17368266 9786736
1.6569999 -0.24198289 0.1419408 16645368
2.388 0.0064499183 0.04233164 10065567
1.649 -0.19549325 0.1332538 16359544
2.4630001 0.042490199 0.0078062909 9342357
1.623 -0.2134023 0.057647642 16732497
2.3080001 0.058473114 0.096910931 8947599
1.653 -0.23872632 0.056039508 15219770
1.671 -0.20620599 0.18097958 10197165
2.415 0.1119407 0.22640325 8092551
2.3970001 0.16536006 0.17819035 8223365
2.4059999 -0.23078017 0.30728471 8153722
2.3699999 0.10219163 0.3486883 7829629
1.7309999 -0.33394706 0.01668576 11116976
2.444 0.010552422 -0.0041133515 9144976
1.7309999 -0.26398376 0.18467808 11842752
1.675 -0.36376339 0.20850573 10593710
1.649 -0.1848294 0.14925723 16745083
2.171 -0.26439747 -0.021211715 9341605
2.444 0.12513867 0.24493453 8355719
1.671 -0.18189223 0.18368241 9802664
1.594 -0.35132656 0.069508962 10851231
2.352 -0.0012523411 0.31560537 7830406
1.985 -0.30592883 0.25030556 10856631
2.3970001 -0.24541795 0.32164374 11308411
2.444 0.17650492 0.24098139 7632768
2.3789999 -0.0012667174 0.33462042 7960963
1.77 -0.33574784 -0.0029789819 10854831
2.503 0.10387979 0.30752745 8751249
1.671 -0.30346107 0.067461029 14763596
1.671 -0.33587942 0.062055383 13931936
1.726 -0.30228752 0.044555411 14168640
2.4059999 -0.0051709088 0.019300664 9210517
2.444 0.089577422 0.32795051 8158342
1.6569999 -0.35181761 0.03473369 10589601
1.623 -0.35247046 0.068148375 10719645
2.3699999 0.0064013009 0.33718798 7697791
1.6569999 -0.038386822 0.16338223 16429221
1.627 -0.13764681 0.063053027 16404311
1.6569999 -0.24198289 0.056175113 16668243
2.3970001 0.16923533 0.18982171 8289930
2.4630001 0.074345939 0.3026129 8224651
2.434 -0.10360815 0.35810438 12620911
1.6619999 -0.32063547 0.12086299 16742522
2.3340001 0.10063935 0.18483265 8158858
2.25 -0.28129378 0.30191842 9014681
1.666 -0.0035805211 0.12654334 16514043
2.3970001 0.01810002 0.026982704 9211028
1.765 -0.22921985 0.20257983 10591662
1.781 -0.32343754 0.20441625 10790578
1.689 -0.017283104 0.14468198 16570069
2.164 -0.27054211 -0.00014185561 2759197
1.6619999 -0.32063547 0.12355126 16744067
1.822 0.016703783 0.073557146 5193811
1.6059999 -0.35137495 0.067434557 10851486
2.3699999 0.075370334 0.091847368 8683914
2.444 0.0066011725 -0.0041133515 9342355
2.444 0.10933367 0.32004422 8159623
1.689 0.010023201 0.13102227 16711679
1.985 -0.0491946 0.064084157 11505816
1.649 -0.37144673 0.21327093 10855083
1.717 -0.16191635 0.058209218 16464461
2.425 0.053596243 0.05083235 9407639
2.454 0.089943938 0.087164082 8617351
1.726 -0.26322123 0.044555411 14893899
2.3169999 -0.1660545 -0.0038996052 10188901
2.043 -0.25871772 0.02960683 3284250
2.3340001 0.013850888 0.31319004 8027526
2.0840001 -0.28749442 -0.020361682 12105160
1.623 -0.21077837 0.083899476 16618094
2.4059999 -0.090746835 -0.011832749 3478808
2.352 0.0063526835 0.32321405 7698561
1.631 -0.072063692 0.071122408 16741744
1.6440001 -0.11250626 0.16210042 14703983
1.653 -0.13984646 0.1549667 16684167
1.812 -0.32906729 0.0028121073 11316408
1.6799999 -0.31052765 0.059672233 15413054
1.627 -0.12449484 0.068316333 15952731
1.653 -0.20932961 0.14961928 14376037
1.6619999 -0.070746407 0.14505738 16761507
1.566 -0.36287761 0.11134875 10193814
1.86 0.047123048 0.14729594 12170700
2.3340001 0.013850888 0.31696525 8093319
2.473 0.0026813662 -0.036162544 9144724
1.7410001 -0.34713507 0.21390544 10528947
2.3699999 0.1251813 0.16851631 8486796
2.3699999 0.1251813 0.18768354 8355208
1.918 -0.31110707 0.23565228 10987706
2.325 0.028832922 0.2706151 8027272
2.3789999 0.133349 0.17685224 8552589
2.473 0.038664579 -0.00016211133 9013392
2.3970001 0.14985901 0.15880476 9211800
2.3 -0.28382632 0.31606817 8487823
2.388 -0.12095364 0.0075685838 16770272
1.531 -0.35724249 0.012281511 9405578
1.614 -0.063484438 0.091266103 16232845
1.77 -0.33002466 -0.025882615 10724521
2.3970001 -0.090407379 -0.0079113673 7359819
2.454 0.16135745 0.30150715 8421516
1.6569999 -0.32234976 0.13658045 11683413
1.619 -0.20764144 0.062742993 16211281
2.2739999 0.053935319 0.22054102 7961479
2.454 0.16135745 0.063348189 8421512
1.722 -0.34613067 0.19764446 10856884
2.3789999 -0.10895929 0.030628085 6504506
1.883 -0.29325283 0.018150946 3813175
1.649 -0.24348056 0.082576282 16289647
2.434 -0.024906499 0.35810438 8158340
2.3970001 -0.12528476 0.33327511 11636596
1.623 -0.10057342 0.091775022 16494976
1.623 -0.1556759 0.070773557 16218975
1.6440001 -0.10453262 0.17273702 10454691
2.434 0.10101615 0.1100755 2432300
1.693 -0.20344666 0.18883914 10327466
1.558 -0.36354268 0.12590019 10260634
1.6569999 -0.049102407 0.1553417 16500139
2.4630001 0.15000331 0.30659679 7830145
1.6569999 -0.15625824 0.13390027 16759956
1.649 -0.17416555 0.13058656 16691080
1.671 -0.29265493 0.072866671 16016984
2.483 0.02677802 -0.016227659 9144724
2.493 0.1639218 0.092581727 8091777
1.765 -0.28914338 0.1883055 12039106
1.6440001 -0.067322321 0.11423571 16767167
1.796 -0.31745076 0.020217329 11643316
2.3789999 0.033348754 0.053716112 8947599
2.523 0.10878881 0.036562916 8289158
1.649 -0.11018246 0.11991761 16763556
1.666 -0.049369104 0.14271176 16700089
1.649 -0.14217401 0.16259342 11226720
2.3970001 -0.098157912 0.3138895 8945289
2.473 -0.073283188 0.047838468 14072235
1.675 -0.24731955 0.16786635 14868975
1.675 -0.036095824 0.15702917 16764595
2.3169999 -0.23722711 0.041073035 3940119
1.707 -0.28792098 0.049587041 16400710
1.751 -0.32365116 0.028207434 10916258
1.6569999 -0.12143259 0.1419408 16563093
2.415 0.15098436 0.32796535 8028037
2.1789999 0.03054516 0.073871799 9539223
1.623 -0.040223092 0.099650569 16169119
1.675 -0.26085955 0.11368049 16361593
1.883 -0.31760702 0.005968025 11381948
2.425 0.16337115 0.34501299 7633279
1.614 -0.084359452 0.086044855 16492672
1.627 -0.17973311 0.09989617 16692359
1.653 -0.15855345 0.17100894 8684435
2.415 -0.17698231 0.33187157 12162169
2.473 -0.05329252 0.055838563 10525352
2.5439999 0.1302589 0.065671474 7960961
2.503 0.047226891 -0.01635837 8486535
1.6440001 -0.20818987 0.12753145 16754564
1.649 -0.15816978 0.11725038 16432269
1.64 -0.014130289 0.090083636 16557994
2.493 0.15989134 0.092581727 8158083
2.425 -0.24436422 0.35285783 14065778
1.671 -0.28184882 0.11340901 16554605
2.4059999 -0.12964498 -0.011832749 9006174
2.425 0.13592742 0.14497016 8289156
1.631 -0.087884858 0.071122408 15625047
1.707 -0.36795318 0.24838281 9607845
1.6569999 -0.23126732 0.1660624 12039108
2.3429999 0.0063283746 0.30302837 8486796
2.2739999 0.090699404 0.12490865 2958391
1.8940001 -0.30721417 0.012129934 9539744
2.388 -0.17886434 0.038469076 9734032
2.454 -0.033045989 0.055409558 10131619
2.503 0.14434616 0.020078786 8815759
2.388 -0.0089929374 0.34747401 8092801
1.7309999 0.029862173 0.12588076 8945566
1.6619999 -0.076120362 0.12892778 16369834
2.017 -0.28803429 0.0031302541 7499902
1.653 -0.18260531 0.1549667 14772595
1.627 -0.21392824 0.086737901 16685686
2.473 -0.057290655 0.015838081 10129040
2.4059999 0.13875224 0.33063477 7566973
1.7410001 0.027219988 0.10126356 13669301
1.6440001 -0.13376929 0.16475956 9981795
2.2260001 -0.25670049 -0.0037464486 3613736
1.531 -0.35476732 0.054379873 9931412
1.623 -0.069086291 0.076023921 16483954
1.666 -0.34564817 0.15079597 10725296
2.388 0.072082058 0.23545973 9080212
1.6619999 -0.34750527 0.075162478 11247271
2.3970001 0.14598374 0.33327511 7566973
1.566 -0.35275051 -0.0077016144 8946569
1.985 -0.29951048 -0.00013012171 10856120
2.444 0.0026499226 -0.0001602103 9473941
1.684 -0.2758739 0.067985862 16617056
1.906 -0.30607918 0.012206786 10197161
1.636 -0.11460372 0.063401811 15219521
1.751 -0.26137209 0.039536323 7611431
2.415 -0.040329538 0.34359026 7632000
1.675 -0.30689546 0.15702917 7497592
1.6799999 -0.30509549 0.065106995 16010840
1.666 -0.052062552 0.14001702 16175289
2.503 0.15648606 0.10509881 7960963
1.684 -0.33849248 0.04891891 11967904
2.266 -0.24299589 0.043834195 3677976
1.751 0.030207202 0.10467742 12358830
1.671 -0.21431059 0.18097958 10920633
1.6619999 -0.29645267 0.088603809 16546664
1.698 0.015566972 0.11798797 16775935
1.675 -0.34480742 0.048657466 11377058
2.3970001 -0.12916003 -0.0040342486 15718849
2.523 0.13326263 0.11410044 7896197
2.473 0.14661421 0.12783943 8158342
1.751 0.033038069 0.10750964 11046050
1.671 0.012617911 0.099894904 16771062
1.6569999 -0.038386822 0.17142276 16154527
1.64 -0.10958111 0.068862185 16149083
1.6440001 -0.23476866 0.092962496 16752766
1.619 -0.35160175 0.096786261 11442853
1.712 -0.36072752 0.23803379 9804713
1.546 -0.35324427 0.044910114 9669010
1.7029999 -0.35607791 0.20648204 10921389
1.8380001 -0.33378902 0.24960674 10986930
1.619 -0.076768406 0.096786261 16628108
1.9349999 -0.30760786 0.0061328351 10724534
1.666 -0.1948152 0.053785495 15411254
1.707 -0.3431156 0.0081712585 11051946
1.614 -0.13393761 0.075602345 16754310
2.434 0.17184764 0.35810438 7698559
1.7029999 0.021119341 0.11558082 16777213
1.619 -0.13435254 0.088930123 16756101
1.6569999 -0.31431308 0.12853992 16734810
2.0039999 -0.30561724 0.27539155 10461614
1.64 -0.18116921 0.11926312 16757131
2.3169999 -0.21100563 0.022334434 5125676
2.3789999 -0.097420804 0.0075400593 15057333
2.2420001 0.08217372 0.1158981 9339021
1.631 -0.079974271 0.060569916 15151170
1.614 -0.20700017 0.072991721 16743521
1.623 -0.058590584 0.099650569 16365720
2.4059999 0.18154021 -0.0079410719 7236981
1.6569999 -0.34645984 0.080296718 11707306
1.722 -0.32664281 0.18371788 11120056
1.631 -0.36739212 0.18192358 10327456
2.3610001 0.036913492 0.29389971 8749969
1.543 -0.357548 0.07477238 10522778
2.3789999 -0.10511313 0.038324095 11439494
1.6619999 -0.32600942 0.13430431 13452115
2.3 -0.20202057 0.01473012 3020048
1.712 -0.34965625 0.19926584 10659503
1.791 -0.2847161 0.031748731 4004384
2.483 -0.045479413 -0.032292552 9868198
2.434 -0.028841581 0.019525276 10197414
1.666 0.0044998173 0.10229073 16757951
2.415 -0.10279938 -0.023595713 4864070
2.187 -0.043593537 0.067068122 11509171
2.03 -0.3063004 0.29209852 10131621
2.3699999 -0.012756764 0.3065204 7961479
2.3970001 -0.12528476 -0.0079113673 12164487
1.693 -0.30198216 0.16693187 11711681
1.614 -0.04260942 0.086044855 16491140
1.546 -0.35324427 0.039908841 9603216
1.883 -0.32673985 -0.015352086 10724785
2.4059999 0.0492865 0.2761513 8422030
1.6799999 -0.2779347 0.12217198 15700066
1.649 -0.099518619 0.15192446 16757909
2.388 0.14929633 0.16979617 8289928
1.675 -0.34480742 0.045948174 11048863
1.693 -0.34577572 0.1778855 10790578
1.906 -0.24136856 0.03995318 4136473
1.8279999 -0.2521784 0.038318157 4725536
1.666 -0.35103506 0.029532878 10589599
1.619 -0.19978905 0.054886851 15150384
1.7029999 -0.33680505 -0.019393712 10394532
2.3340001 -0.25406131 0.29431394 8355470
1.6619999 -0.28570476 0.091292068 16755064
1.666 0.0044998173 0.10498546 16757947
2.473 0.110631 0.11183923 9144726
1.796 -0.34648696 0.24099799 10921646
1.649 -0.1714996 0.14925723 16748929
1.614 -0.04000004 0.093876727 16298640
1.6619999 -0.05999849 0.13968085 16630183
2.454 0.14152037 -0.012068814 8289928
2.415 -0.052042633 0.35140273 9801366
2.1129999 -0.2778306 -0.030898284 11381445
1.64 -0.10427828 0.06620951 16736607
1.653 -0.34295106 0.12555592 11968431
2.25 -0.21581686 -0.00014749312 3414804
1.7410001 -0.33869097 0.00270192 10525350
2.171 0.090101093 0.15436663 8683916
1.7410001 -0.29365578 0.18011287 12038589
1.698 -0.34130657 -0.0028578029 10525348
1.619 -0.35945415 0.14916053 10984872
1.627 -0.11397326 0.09989617 16628619
1.627 -0.024539858 0.081474595 16754838
1.786 -0.0096133258 0.066326104 10589341
1.6440001 -0.22413714 0.10625825 16757132
1.649 -0.34478712 0.11458313 11837612
2.473 -0.045296248 0.051838513 10788524
1.801 -0.12907387 0.058143862 15694977
1.666 -0.00088707492 0.11037493 16775921
2.434 0.17184764 0.011651344 7894657
1.7309999 -0.2611852 0.041884609 12205892
1.6799999 -0.27521864 0.12760673 16620147
2.415 0.061183956 0.07796637 8815502
1.653 -0.35096833 0.050692093 10914716
1.96 0.027475223 0.19008812 8552589
1.649 -0.23015076 0.10391419 16358776
1.6619999 0.0071759927 0.093980335 14660030
2.3789999 -0.17819023 0.03447609 8877694
1.6619999 -0.30720058 0.12086299 16738657
1.627 -0.35596955 0.13937096 11247529
1.684 -0.011786847 0.14152981 16308956
1.666 -0.35372853 0.016059201 10655392
