# .PCD v0.7 - Point Cloud Data file format
VERSION 0.7
FIELDS x y z rgba
SIZE 4 4 4 4
TYPE F F F U
COUNT 1 1 1 1
WIDTH 1241
HEIGHT 1
VIEWPOINT 0 0 0 1 0 0 0
POINTS 1241
DATA ascii
2.2420001 -0.15343006 0.13040373 1971985
2.3340001 0.08177229 0.24901134 1118473
2.4630001 0.042490199 0.16317736 1381645
2.3080001 -0.02734855 0.12677623 1579022
2.2909999 -0.14567167 0.29630303 723974
2.2179999 -0.040625587 0.14335816 1775635
2.325 -0.053862017 0.35334963 197888
2.21 0.013115023 0.20003547 923145
2.2019999 -0.033212516 0.14944743 1709838
2.1789999 0.016453877 0.22190107 1707787
2.266 0.090380318 0.29673493 2297353
2.2909999 -0.060482144 0.12584244 1381904
2.352 0.032970268 0.17864943 1579022
2.2739999 0.050258908 0.3823804 920326
2.194 0.013020072 0.20568478 792078
2.266 -0.023187399 0.35904381 722434
2.3340001 -0.050297104 0.3698183 197888
2.1789999 0.012931056 0.20780306 1118990
2.2579999 -0.13627231 0.27377361 657669
2.1789999 0.0023625947 0.19370502 1185287
2.25 0.035178043 0.22185275 1315852
2.4059999 0.045396682 0.19053443 1775631
2.325 -0.12528038 0.327025 658182
2.187 -0.029450521 0.15196684 1644045
2.3970001 -0.090407379 0.37204629 329217
2.454 0.066139437 0.20227425 1316109
2.3610001 -0.06996426 0.36263973 328704
2.352 -0.14574781 0.32701838 658694
2.164 -0.011647949 0.17837061 1381643
2.266 0.035428196 0.21609992 1184783
2.2739999 0.046582501 0.22789735 1446666
2.3080001 -0.090781957 0.32090068 197379
2.513 0.071792394 0.13803668 1513491
2.454 0.066139437 0.20227425 1316109
2.3610001 -0.14248845 0.33590752 527622
2.25 -0.11396386 0.27644297 722434
2.4059999 0.022057794 0.13215928 1644563
2.493 -0.11015008 0.41517356 723721
2.3 0.080581091 0.26026481 1184525
2.454 -0.16793817 0.37692416 396037
2.283 -0.10825341 0.30265382 132097
2.434 0.10888632 0.27936503 1118219
2.513 -0.094782539 0.42256904 396036
2.503 0.055320162 0.18607028 1644049
2.2420001 -0.16067941 0.23919599 658439
2.2420001 0.074924372 0.3769995 461315
2.503 -0.16319819 0.41683891 330503
2.2579999 0.013399874 0.18246639 1513229
2.3970001 0.021975284 0.14329627 1513488
2.415 0.0065228445 0.40999624 263424
2.3340001 -0.050297104 0.36604309 263936
2.503 -0.142965 0.41683891 658181
2.25 -0.11760146 0.27644297 525313
2.2420001 -0.17517811 0.13040373 1644817
2.3 -0.090467289 0.31606817 197377
2.2179999 -0.14461589 0.23663546 787458
2.325 0.0025208963 0.13899201 1644049
2.483 -0.18597998 0.42154065 461062
2.25 -0.16125275 0.24368885 592901
2.3 -0.079311959 0.32350862 329217
2.3789999 -0.062805332 0.37694848 197377
2.2420001 -0.120808 0.26458085 787458
2.5650001 0.07327795 0.18653043 1578770
2.425 -0.16203304 0.36070263 330757
2.2179999 0.020334244 0.20434716 988174
2.234 -0.13121215 0.2600233 394245
2.234 0.085492246 0.35758695 3881525
2.4630001 -0.19244589 0.39424199 264451
2.473 -0.16923842 0.38784257 396037
2.513 0.075855196 0.20713741 1250316
2.325 -0.1515924 0.31574303 855560
2.352 -0.17616791 0.30038807 461578
2.3340001 -0.17859308 0.28298831 855307
2.4630001 -0.1406803 0.39025813 264199
2.2260001 0.077988483 0.36710799 658439
2.473 -0.18523096 0.41184285 67585
2.21 -0.13694841 0.24293125 919044
2.234 -0.051753871 0.14077882 1775635
2.533 0.10922 0.22927141 1119760
2.388 -0.1363965 0.35519913 396298
2.493 0.059129614 0.18935928 1578770
2.1789999 -0.039911252 0.15141095 1381645
2.164 -0.018645089 0.17137012 1512461
2.434 0.10888632 0.27149111 1118219
2.5439999 0.064452171 0.16854371 1644564
2.4059999 -0.1374246 0.36176819 330505
2.388 -0.082346499 0.37064937 460290
2.4630001 0.046472166 0.13927411 1381902
2.2579999 -0.17277771 0.14229122 1775120
2.3970001 -0.14078581 0.35266072 462089
2.388 -0.074625075 0.37064937 328704
2.2909999 0.021003494 0.19254442 1512459
2.2420001 -0.13893136 0.26458085 526342
2.3610001 -0.050878946 0.38555306 263172
2.3080001 0.062204491 0.23503795 1052676
2.194 -0.015356498 0.15955079 1840399
2.3080001 -0.14302123 0.30596805 723715
2.266 -0.11843774 0.28940448 263681
2.4630001 -0.1526262 0.38229039 396300
2.2909999 0.021003494 0.18883875 1644045
2.3789999 -0.089728475 0.36540446 329216
2.352 0.097612977 0.30038807 1379846
2.352 0.029167756 0.17864943 1513488
2.4059999 0.06873557 0.22166784 1382156
2.3610001 0.01782818 0.14878193 1645326
2.283 -0.07872574 0.12909573 1775631
2.493 -0.11418055 0.41114116 658182
2.473 -0.18123282 0.39584267 330244
2.2019999 0.016627552 0.20999648 1118990
2.2420001 -0.14618072 0.12677732 1578254
2.473 0.050658982 0.18384011 1644049
2.3429999 0.078299649 0.24239199 1184264
2.3610001 -0.18447614 0.29008085 921354
2.444 0.034259923 0.13819973 1579281
2.454 -0.17984042 0.38089347 527623
2.234 -0.11315345 0.12271149 1381643
2.352 0.025365245 0.39549637 1378052
2.194 0.0094730016 0.20568478 857871
2.3169999 -0.17354636 0.26593623 855558
2.415 -0.11060811 0.37484014 724234
2.388 -0.1363965 0.35519913 396298
2.483 0.050863829 0.1685186 1512977
2.3340001 -0.054070514 0.35849264 197888
2.2909999 -0.10492885 0.30742005 132097
2.493 -0.17463759 0.41517356 67585
2.352 0.105218 0.34984437 1315082
2.575 0.081889711 0.17059751 1776149
2.434 -0.17050456 0.36991528 396037
2.483 -0.17795137 0.41350821 133378
2.3080001 -0.15421537 0.29103538 789514
2.388 0.041196343 0.19297154 1709838
2.444 0.10933367 0.26865339 1184012
2.283 -0.15254492 0.28049746 790027
2.2579999 -0.12532069 0.28107819 395010
2.25 -0.16852796 0.13814774 1906192
2.3 -0.094185732 0.31606817 262659
2.283 -0.145163 0.29157564 658181
2.2579999 -0.17277771 0.1495958 2037265
2.3789999 0.071810387 0.2307243 1381641
2.2579999 -0.16912718 0.1495958 2102545
2.454 -0.128264 0.38883209 461062
2.533 0.11331514 0.14323236 1316111
2.1789999 0.048159264 0.25009713 1576712
2.1559999 -0.022061797 0.16724928 1840145
2.3610001 0.09416943 0.27098638 1314569
2.483 -0.17795137 0.40547577 133378
2.2019999 0.045107592 0.24561356 1446155
2.434 0.10101615 0.24393235 988425
2.3610001 0.01782818 0.14878193 1645326
2.434 0.045924991 0.18094088 1644047
2.234 -0.13843563 0.25279635 394756
2.3429999 0.021480221 0.17038627 1119243
2.3340001 -0.10312486 0.33584133 197379
2.3340001 -0.18236651 0.2641122 986633
2.425 0.088881031 0.23126315 1381643
2.21 -0.065489627 0.14999038 1644563
2.3 -0.034690641 0.13005702 1579024
2.142 -0.028844543 0.17309257 1774352
2.425 0.10064263 0.25872001 921605
2.2420001 -0.15705474 0.13403015 2103056
2.483 -0.081608132 0.40949199 132867
2.3429999 -0.099734552 0.34471592 328963
2.2420001 -0.15705474 0.13040373 1906706
2.3610001 -0.18447614 0.29008085 921354
2.266 -0.16606291 0.23442605 723974
2.352 0.10141549 0.29658371 1052939
2.2579999 -0.066912025 0.13863893 1971983
2.483 -0.17795137 0.41752443 132865
2.513 -0.11915936 0.42663378 592901
2.454 0.046302352 0.1665504 1579024
2.503 0.099833161 0.23060457 1250578
2.3970001 0.021975284 0.14329627 1513488
2.388 -0.063042931 0.38223708 132097
2.283 -0.0012156015 0.15125209 1709840
2.3080001 -0.10197608 0.32090068 197379
2.503 -0.15510491 0.41683891 396037
2.2260001 -0.069562569 0.14387523 1513231
2.473 -0.15724401 0.38384253 396298
2.4630001 -0.12873441 0.39822587 657928
2.2019999 -0.036772523 0.14944743 1709838
2.425 0.10848369 0.28225446 1052940
2.434 0.10888632 0.27542809 1249805
2.388 -0.12095364 0.35906169 461578
2.1559999 -0.0011479793 0.20212233 1446668
2.3970001 0.037476342 0.17431323 1644045
2.2579999 -0.11436906 0.28107819 460290
2.2420001 -0.16792876 0.13040373 1709840
2.2909999 0.024707386 0.18883875 1775120
2.325 0.085215837 0.2630938 1184525
2.1789999 0.012931056 0.20780306 1118990
2.3429999 -0.061854936 0.35987502 197632
2.187 0.037728813 0.23686555 1512463
2.3429999 -0.14140214 0.32955682 658694
2.1789999 0.0094082355 0.20780306 1118990
2.2579999 -0.16912718 0.1495958 2102545
2.3429999 -0.10352252 0.34471592 394756
2.3970001 -0.11753424 0.36816919 592648
2.3080001 -0.11690159 0.32090068 592648
2.3610001 -0.0050741956 0.39319086 329217
2.415 -0.18088669 0.3592152 396037
2.513 0.063666783 0.19494316 1381391
2.2909999 -0.14196777 0.30000871 657922
2.3610001 0.086535305 0.24807304 1184266
2.3080001 -0.087050579 0.32090068 197890
2.3610001 0.10562062 0.35500196 2499097
2.2420001 0.07854905 0.37337309 724487
2.2739999 -0.078415386 0.13226499 1841167
2.1789999 -0.039911252 0.15141095 1381645
2.325 0.040109504 0.39471689 657668
2.234 -0.14927085 0.23834248 526083
2.4630001 -0.17253605 0.38627425 461830
2.2420001 0.035052966 0.22469035 1446668
2.1340001 -0.025286745 0.17934954 1708813
2.434 -0.083932742 0.3896001 526342
2.283 0.0061663161 0.15863754 1775633
2.2909999 0.069154099 0.25183505 1052939
2.513 -0.11915936 0.42663378 592901
2.3610001 0.086535305 0.24807304 1184266
2.3169999 0.024987785 0.17973867 1447438
2.2579999 -0.16912718 0.14229122 1906192
2.3610001 -0.18065907 0.31299418 396039
2.473 -0.077281326 0.40784281 67074
2.3080001 -0.031079927 0.37689814 394756
2.352 0.040575292 0.20147543 1382156
2.3340001 0.059131823 0.22636004 1250057
2.283 -0.086107656 0.30265382 852737
2.1789999 0.016453877 0.22190107 1707787
2.425 -0.16203304 0.36070263 330757
2.3429999 -0.14140214 0.32955682 658694
2.352 0.086205438 0.25473607 1118219
2.2420001 -0.12443268 0.26820725 656388
2.533 0.10922 0.22927141 1119760
2.1789999 -0.036388431 0.15141095 1381645
2.2909999 -0.0012198611 0.14437076 1709842
2.3169999 0.073684841 0.24344991 1250059
2.266 -0.023187399 0.35904381 722434
2.266 -0.10012037 0.28940448 591361
2.2179999 0.0095766261 0.1935844 1185288
2.4630001 -0.12475243 0.39424199 658182
2.25 0.082466938 0.37106603 395522
2.5439999 0.11380722 0.15208416 1512208
2.2579999 -0.16547664 0.14229122 2037265
2.3429999 0.0025404128 0.12869875 1776149
2.513 -0.11103375 0.42663378 527108
2.21 0.034552656 0.23578195 1315852
2.3789999 -0.17819023 0.33077243 789768
2.3610001 -0.18065907 0.31299418 396039
2.3 0.0024937899 0.15237837 1775633
2.5439999 0.10146846 0.21792239 1185038
2.2260001 -0.069562569 0.14387523 1513231
2.5650001 0.10645293 0.169935 1578001
2.2909999 -0.053074356 0.1295481 1709840
2.5539999 0.097738229 0.1609441 988173
2.352 -0.17236538 0.31180105 526857
2.2739999 -0.045327712 0.13226499 1906706
2.1340001 -0.025286745 0.17589782 1577741
2.4059999 0.041506868 0.19053443 1709838
2.3699999 -0.081725799 0.36018866 329216
2.194 0.0094730016 0.20568478 857871
2.2179999 0.027505988 0.22228511 1446668
2.3610001 -0.15393963 0.33208862 593669
2.283 0.0098572755 0.16971572 1250570
2.434 -0.14689407 0.37385222 396300
2.2579999 0.017050415 0.19342326 1316363
2.3340001 -0.14463238 0.32074046 789767
2.5539999 0.11012549 0.16507517 1447185
2.142 -0.025381541 0.17309257 1577743
2.483 -0.13379405 0.40547577 658182
2.194 0.020114215 0.21633108 1380875
2.483 -0.15386556 0.3934271 264201
2.483 0.050863829 0.17655104 1578770
2.3340001 -0.10312486 0.33584133 197379
2.3080001 -0.023617173 0.13050939 1907217
2.434 -0.13115373 0.3777892 461578
2.503 0.055320162 0.18202169 1775635
2.586 0.10732447 0.20060605 1447438
2.3610001 -0.15012257 0.32826972 658694
2.266 -0.14041859 0.27474356 723462
2.2179999 -0.0011809916 0.17564645 1513229
2.415 0.0026184793 0.40999624 131584
2.234 -0.14927085 0.24556941 526083
2.444 -0.10403383 0.39120075 723975
2.3 -0.049564414 0.34582993 394496
2.454 0.10581361 0.4166173 396036
2.5650001 0.098159179 0.21142358 1381902
2.2909999 0.072857991 0.25554073 1184525
2.2909999 -0.10492885 0.3111257 197890
2.3429999 -0.1148864 0.33713636 264199
2.3 -0.11277794 0.31606817 526855
2.2579999 -0.12167014 0.28107819 329217
2.4630001 -0.12077047 0.39424199 723975
2.513 0.063666783 0.19494316 1381391
2.3429999 0.089663535 0.27649996 987147
2.2420001 -0.15705474 0.22831675 1181956
2.513 0.059603982 0.15429568 1316624
2.415 0.0338534 0.16390352 1513231
2.2909999 -0.064186037 0.1295481 1709840
2.266 -0.09279342 0.12446921 1644815
2.3429999 0.036632068 0.39777276 657668
2.1340001 -0.028736813 0.17934954 1642766
2.523 -0.082922801 0.42833149 527106
2.3789999 -0.1820364 0.32692441 723975
2.3169999 -0.0836441 0.32964748 263170
2.4630001 0.046472166 0.15919347 1447695
2.444 0.034259923 0.14215286 1579535
2.2260001 0.077988483 0.27349424 1248262
2.352 -0.11532771 0.34984437 395785
2.454 -0.19174267 0.38883209 461060
2.234 0.08188051 0.36120039 1052940
2.1559999 -0.029033069 0.16027467 1840913
2.2420001 -0.11718333 0.26820725 853251
2.21 0.066709101 0.26437914 1446157
2.3340001 -0.17104627 0.29808918 658443
2.3340001 0.0063040657 0.13575482 1775635
2.3789999 0.075656556 0.2307243 1381641
2.2179999 0.052607097 0.24739823 1446670
2.425 -0.10714559 0.38423708 592389
2.5650001 0.098159179 0.21142358 1381902
2.5439999 0.068565093 0.15619905 1118990
2.3 -0.086748846 0.31606817 263681
2.2739999 -0.071062572 0.13226499 1906706
2.3080001 -0.180335 0.23503795 987659
2.325 -0.1515924 0.31198236 855560
2.2019999 0.016627552 0.20999648 1118990
2.2909999 -0.14567167 0.30000871 657668
2.3080001 -0.13928986 0.3097012 789254
2.444 0.050064921 0.18959056 1709840
2.3429999 -0.058066975 0.35987502 197888
2.3080001 -0.11317021 0.32463387 526855
2.3970001 -0.1756632 0.34490648 461830
2.483 -0.15386556 0.3934271 264201
2.352 0.086205438 0.25854039 1184012
2.4059999 0.10763372 0.29560968 790795
2.266 -0.10744732 0.28940448 263424
2.3610001 -0.08904957 0.35500196 198144
2.1559999 -0.0011479793 0.19863503 1184264
2.425 -0.1698741 0.35678023 330757
2.2909999 -0.15307947 0.28518605 789514
2.3429999 0.0063283746 0.12869875 1710356
2.2179999 -0.14461589 0.24022305 591106
2.3 -0.094185732 0.31234795 328706
2.2260001 -0.12714347 0.12587258 856588
2.483 -0.17795137 0.42154065 329476
2.444 -0.19096132 0.38329446 526853
2.352 -0.15715533 0.32321405 658692
2.3169999 -0.064914465 0.33339518 590849
2.5650001 0.10230605 0.21142358 1250318
2.5539999 0.10186732 0.15681304 1250319
2.325 0.096492417 0.30446103 1707271
2.533 0.11331514 0.22927141 1053967
2.3429999 -0.05049105 0.37503409 329217
2.2019999 -0.0082924822 0.17437939 1381643
2.513 -0.10697095 0.42256904 658182
2.454 -0.14413367 0.38486278 329994
2.266 -0.10744732 0.28940448 263424
2.25 0.067916505 0.2546069 1184525
2.473 -0.13325521 0.39584267 658441
2.266 -0.096456893 0.28940448 787457
2.266 -0.030514348 0.13913013 1841426
2.2909999 -0.038258787 0.36300501 328704
2.3080001 0.05474174 0.22010531 1315850
2.1789999 -0.050479714 0.15141095 1316109
2.283 0.035693988 0.21402842 988176
2.3610001 -0.18447614 0.28626195 921354
2.454 -0.17190559 0.37692416 396037
2.1340001 -0.0080364021 0.20005985 1773578
2.3789999 0.091041207 0.25766033 1184266
2.513 -0.11915936 0.42256904 658182
2.444 0.050064921 0.1935437 1710610
2.5439999 0.10558138 0.21792239 1185038
2.3789999 -0.17819023 0.33462042 920841
2.493 -0.15045477 0.40710878 526855
2.234 -0.14204736 0.12271149 1185038
2.3 0.050833549 0.22306259 1381645
2.3169999 -0.091135956 0.32964748 328452
2.266 0.0024569251 0.15379104 1775633
2.3340001 -0.065390751 0.34339178 459520
2.164 0.0058449009 0.20987281 1314829
2.3699999 0.086865172 0.24518524 1184264
2.2260001 -0.1451375 0.24829055 460290
2.3699999 -0.18517935 0.31418729 461830
2.2260001 -0.13434108 0.25549161 197892
2.3610001 -0.012708321 0.39319086 132097
2.3699999 0.037054203 0.18768354 1709838
2.3169999 -0.15856265 0.29966572 789516
2.2179999 -0.047797333 0.14335816 1709842
2.3610001 -0.10050076 0.35500196 526342
2.415 -0.087181918 0.37874639 394497
2.388 -0.070764363 0.37837452 328706
2.25 0.031540435 0.21457405 1118990
2.25 -0.17216557 0.1345084 1775633
2.434 -0.048516996 0.4132219 66304
2.5650001 0.085718565 0.16578615 1448208
2.25 -0.16489036 0.13814774 1906192
2.2260001 0.077988483 0.36710799 658439
2.454 0.082009107 0.22609013 1184523
2.2260001 -0.14153869 0.12947311 1577741
2.3169999 0.051209275 0.21721588 1250318
2.3340001 0.08177229 0.24523613 1118473
2.266 -0.14408207 0.2784088 921354
2.3970001 0.095605306 0.25573272 921351
2.2909999 -0.10122496 0.3111257 263170
2.4059999 0.060955942 0.21388449 1053450
2.3080001 -0.180335 0.23130479 1118219
2.3340001 0.0025306544 0.1319796 1841428
2.434 -0.15082915 0.3659783 396298
2.194 -0.040185995 0.14890447 1709838
2.2420001 -0.037440505 0.14128296 1775635
2.325 0.081456974 0.2518118 1118219
2.1789999 -0.039911252 0.15141095 1381645
2.25 0.020627614 0.19637732 1447949
2.425 -0.12674825 0.38031468 592648
2.1489999 -0.032413125 0.15975431 1775633
2.388 -0.051460791 0.39768732 197381
2.4059999 0.029837424 0.15161766 1645328
2.2260001 0.067192063 0.25909215 1184523
2.266 -0.1257647 0.28940448 526596
2.3610001 -0.18447614 0.30153751 462343
2.2739999 -0.078415386 0.13226499 1841167
2.2019999 0.0023875327 0.1815028 1447947
2.3080001 0.095786884 0.3097012 1838344
2.586 0.094782002 0.20060605 1513229
2.3340001 -0.0012427568 0.12820439 1776150
2.2909999 -0.056778248 0.1295481 1644047
2.388 -0.066903643 0.37837452 197377
2.3970001 -0.14078581 0.35653782 396296
2.434 -0.076062575 0.39353704 328965
2.1489999 -0.0080928905 0.18408617 1250055
2.483 -0.15787986 0.3934271 264199
2.3 0.050833549 0.21934237 1315852
2.3340001 -0.095578037 0.33584133 263172
2.3970001 -0.036153682 0.40694037 132097
2.3610001 -0.027976571 0.39319086 513
2.3080001 -0.17660362 0.25743693 789767
2.483 -0.16590847 0.40145954 461830
2.513 0.079917997 0.13803668 1513748
2.187 0.041264568 0.24394044 1511434
2.3340001 0.096865937 0.3698183 2300950
2.3429999 -0.17928176 0.29544884 526857
2.1340001 -0.025286745 0.18280126 1773578
2.234 -0.1456591 0.1335519 1905164
2.21 0.063136168 0.2608045 1446157
2.352 0.086205438 0.25473607 1118219
2.3340001 -0.10689827 0.33961657 395271
2.483 -0.17795137 0.40547577 133378
2.473 -0.10526827 0.40384275 657928
2.3429999 -0.10352252 0.34850568 460549
2.266 -0.026850874 0.13546489 1775631
2.503 0.10792643 0.24275029 1053966
2.575 0.07772667 0.17892757 1775635
2.2739999 0.050258908 0.3823804 920326
2.3429999 0.010116336 0.14006807 1710610
2.283 -0.10087149 0.2989611 329217
2.21 -0.0083226096 0.16786362 1644047
2.4059999 0.041506868 0.19053443 1709838
2.25 -0.14670232 0.26188558 658182
2.234 -0.048142131 0.14077882 1775635
2.493 -0.094028205 0.41114116 592646
2.434 -0.064257324 0.40534794 1027
2.434 -0.17050456 0.3659783 396037
2.2579999 0.057206366 0.37968996 789255
2.2420001 -0.14980538 0.12315091 1709842
2.3169999 0.039971493 0.20972043 987657
2.3789999 -0.085882314 0.36155644 329216
2.3429999 -0.084582709 0.34850568 132096
2.3 -0.094185732 0.31606817 262659
2.454 -0.16793817 0.37692416 396037
2.5650001 0.1105998 0.17408386 1446415
2.325 -0.035067711 0.37591359 329217
2.3610001 -0.1272202 0.33972639 396039
2.5650001 0.10645293 0.17823271 1380877
2.1340001 -0.032186881 0.16554266 1381645
2.21 0.077427924 0.35374537 1513491
2.3080001 -0.10570746 0.32090068 132097
2.444 0.034259923 0.15005915 1579533
2.1559999 -0.025547432 0.16376197 1840915
2.234 -0.058977351 0.14077882 1841426
2.503 -0.1308251 0.41279036 723975
2.2909999 -0.10122496 0.3111257 263170
2.425 -0.1698741 0.35678023 330757
2.1789999 -0.011728687 0.17255799 1447436
2.586 0.10314365 0.20060605 1513231
2.5439999 0.1096943 0.15208416 1381392
2.5969999 0.086787961 0.18465689 1578254
2.187 0.034193058 0.23686555 1512461
2.164 -0.018645089 0.16786987 1709329
2.493 -0.10611961 0.41114116 657928
2.3789999 0.021810263 0.15761222 1513229
2.425 0.041834645 0.18419425 1775631
2.575 0.081889711 0.17476255 1709842
2.3169999 -0.04618483 0.35588151 263424
2.415 -0.063755728 0.3943713 132613
2.2260001 -0.073161379 0.14387523 1644045
2.3789999 0.094887368 0.26150835 1184266
2.3699999 0.044717431 0.19535044 1513229
2.454 -0.18777525 0.38883209 198658
2.2739999 -0.11885588 0.29410437 263681
2.283 -0.17469066 0.21772115 1575685
2.415 0.10022761 0.26155937 1118473
2.3080001 -0.10570746 0.32090068 132097
2.483 -0.16992277 0.39744332 330244
2.444 -0.16725382 0.37143505 396037
2.2420001 0.035052966 0.22831675 1446668
2.3340001 -0.088031217 0.33961657 197892
2.3 0.035959776 0.20818171 1119243
2.3970001 0.025850549 0.14329627 1513488
2.503 -0.13487174 0.41683891 658181
2.444 0.10538242 0.26470023 1118473
2.3340001 -0.17859308 0.27921307 855050
2.266 0.083053373 0.2784088 920841
2.454 -0.084622413 0.40074003 395269
2.415 -0.059851363 0.3943713 132099
2.3 -0.14996238 0.30118728 657669
2.234 -0.051753871 0.14077882 1775635
2.352 -0.16856287 0.31180105 592650
2.21 -0.015468487 0.15356503 1709327
2.4059999 -0.0051709088 0.40846831 132097
2.3080001 -0.098244712 0.32463387 197379
2.266 0.0061204 0.16478673 1447436
2.415 -0.17698231 0.3592152 330757
2.513 -0.11915936 0.42663378 592901
2.3169999 0.021241859 0.1834864 1513229
2.4059999 0.022057794 0.40846831 789255
2.266 -0.13309164 0.28207403 658181
2.266 0.07572642 0.26741311 790795
2.3 -0.049564414 0.34582993 394496
2.1340001 -0.0080364021 0.19660814 1511430
2.325 0.066421531 0.2330085 1184262
2.3169999 -0.0049796323 0.38211554 591106
2.1789999 -0.0046830466 0.179607 1316361
2.2739999 0.050258908 0.3823804 920326
2.2909999 -0.11604054 0.3111257 592648
2.234 0.016869189 0.20220779 922634
2.2909999 0.024707386 0.18883875 1775120
2.3080001 0.080861375 0.25743693 1184525
2.388 0.099107049 0.39382476 855301
2.266 -0.11111079 0.28940448 197632
2.388 -0.1363965 0.35519913 396298
2.3610001 -0.0050741956 0.39319086 329217
2.4059999 0.022057794 0.13215928 1644563
2.266 -0.085466467 0.12813444 1579022
2.1789999 0.0023625947 0.19370502 1185287
2.388 -0.1093715 0.36678681 790027
2.3340001 -0.17481968 0.28298831 855307
2.266 0.0097838743 0.17578241 1316363
2.3429999 -0.12246232 0.33713636 329992
2.352 -0.17236538 0.31180105 526857
2.171 -0.053804271 0.15787819 1840137
2.2579999 -0.037707701 0.13863893 1775120
2.3610001 -0.14248845 0.33590752 527622
2.434 0.10888632 0.27542809 1249805
2.415 -0.18088669 0.3592152 396037
2.454 0.093911357 0.23402877 1250059
2.5539999 0.06883461 0.17746836 1709587
2.25 -0.11396386 0.27644297 722434
2.388 -0.066903643 0.37837452 197377
2.388 0.037335631 0.18138386 1775631
2.473 -0.18123282 0.39984271 330244
2.2739999 -0.15561996 0.27203536 658441
2.4059999 -0.18021257 0.35009316 330757
2.2019999 -0.0082924822 0.17081767 1644047
2.5539999 0.093609139 0.15681304 988433
2.2019999 0.030867573 0.22780502 1512461
2.3610001 -0.10050076 0.35500196 526342
2.425 0.10064263 0.25872001 921605
2.352 0.021562733 0.39169204 1705988
2.2739999 -0.11150306 0.29410437 132096
2.2909999 -0.14196777 0.29630303 658179
2.2579999 -0.059610948 0.13863893 1971985
2.388 0.060499914 0.22000948 1316109
2.3970001 0.049102135 0.20145306 1513488
2.3970001 -0.1756632 0.34102935 592646
2.142 -0.011529531 0.19388053 1511685
2.3789999 0.056425735 0.20763628 1119243
2.234 0.074657023 0.37204081 724232
2.2260001 -0.13793989 0.12227205 988174
2.4630001 -0.18846391 0.39822587 264451
2.325 -0.02003227 0.38343489 328963
2.3 -0.12765172 0.30862772 657668
2.2579999 -0.037707701 0.13863893 1775120
2.3789999 -0.11665162 0.35770845 461578
2.473 -0.17323656 0.3918426 330244
2.3 0.076862648 0.26026481 1184525
2.266 0.013447349 0.17944764 1513229
2.473 0.086642191 0.22784063 1250059
2.1559999 0.0093089296 0.21607155 1838606
2.3789999 0.0179641 0.1345242 1447184
2.2579999 -0.15452501 0.25916445 789765
2.434 -0.14295898 0.36991528 330505
2.352 -0.13053775 0.33843139 330503
2.187 0.034193058 0.23686555 1512461
2.473 0.110631 0.25184092 1185034
2.266 0.083053373 0.28207403 1248778
2.3699999 0.044717431 0.19918388 1579022
2.415 0.0065228445 0.40999624 263424
2.194 -0.011809426 0.16664831 1644047
2.513 -0.15978739 0.42663378 329474
2.3789999 -0.093574643 0.36540446 526596
2.3699999 -0.17751613 0.31802073 526855
2.325 -0.1515924 0.31198236 855560
2.2579999 -0.16547664 0.22264156 1509892
2.325 -0.023791131 0.38343489 328965
2.483 -0.13780835 0.40145954 658441
2.503 0.091739886 0.21845886 1381904
2.425 -0.091463454 0.38031468 394497
2.483 -0.08562243 0.41350821 133377
2.164 0.0058449009 0.20637256 1184783
2.434 -0.17050456 0.3659783 396037
2.454 0.042334937 0.1665504 1579024
2.3 -0.16855459 0.26770526 789767
2.3340001 0.10063935 0.37359351 1774352
2.234 0.0024222289 0.16968657 1381643
2.3 -0.17599148 0.24538393 593415
2.3789999 -0.12819012 0.35386044 396298
2.2179999 -0.062140822 0.14335816 1578770
2.388 -0.1363965 0.35519913 396298
2.483 -0.17795137 0.41752443 132865
2.2909999 -0.14937557 0.2888917 789768
2.3970001 -0.094282642 0.37204629 526596
2.3340001 0.0176243 0.15840612 1513231
2.3169999 0.084922619 0.26968396 987659
2.388 0.10682848 0.31657353 1051651
2.3970001 -0.15628688 0.34878358 330757
2.25 0.075191721 0.27280363 1248776
2.434 -0.14689407 0.37385222 396300
2.388 0.10682848 0.31271097 1117444
2.2739999 -0.082091793 0.12858681 1579022
2.3080001 -0.180335 0.22757162 1183498
2.533 0.11331514 0.23336852 1053969
2.2179999 -0.044211462 0.14694574 1840913
2.2019999 0.0023875327 0.1815028 1447947
2.3169999 -0.049930759 0.35588151 197888
2.234 -0.13482389 0.2600233 197892
2.483 0.11107836 0.24482684 1185036
2.3340001 0.0063040657 0.1319796 1775635
2.5650001 0.077424817 0.20312585 1513488
2.234 -0.13843563 0.25640982 132613
2.434 -0.087867826 0.3896001 657671
2.483 0.070935339 0.2046646 1316109
2.3080001 -0.15794674 0.29103538 789516
2.2420001 -0.030191159 0.14128296 1710356
2.3610001 -0.027976571 0.39319086 513
2.4630001 -0.1406803 0.39025813 264199
2.2260001 -0.13434108 0.12587258 1053452
2.454 -0.14413367 0.38089347 396300
2.2579999 -0.081514195 0.13863893 1775374
2.2260001 -0.073161379 0.14387523 1644045
2.523 0.063920133 0.19163798 1512977
2.3080001 -0.10197608 0.32090068 197379
2.325 -0.098968349 0.33078566 263172
2.3429999 -0.17928176 0.29544884 526857
2.1559999 -0.015090524 0.17422388 1578254
2.3699999 -0.12387354 0.35252175 330505
2.3080001 0.036084853 0.20143948 1250570
2.1340001 -0.042537086 0.16899438 1838857
2.533 0.10512486 0.14732946 1316111
2.2579999 -0.034057159 0.13498665 1840913
2.483 -0.13379405 0.40547577 658182
2.5650001 0.098159179 0.16578615 1250829
2.513 0.055541176 0.17461942 1447184
2.513 -0.12322216 0.42663378 592901
2.3610001 -0.16920789 0.31681305 658441
2.234 0.08188051 0.36120039 1052940
2.2420001 0.06042568 0.2464488 1052939
2.234 -0.01202473 0.15161923 1775631
2.513 0.055541176 0.17868416 1578770
2.283 -0.07872574 0.12909573 1775631
2.3610001 0.10180356 0.38173419 1380364
2.4059999 -0.12186535 0.36565986 527371
2.483 -0.13780835 0.39744332 658441
2.234 0.0024222289 0.16607311 1447436
2.325 -0.072656319 0.33830699 525315
2.533 0.072363757 0.15142657 1250576
2.266 -0.16606291 0.23809129 724232
2.3610001 0.082718246 0.24043527 1118471
2.2179999 -0.051383205 0.14335816 1709842
2.2579999 -0.17277771 0.14594351 1906192
2.3169999 -0.0049796323 0.38211554 591106
2.483 -0.17795137 0.42154065 329476
2.3610001 -0.1272202 0.33972639 396039
2.325 0.085215837 0.2630938 1184525
2.266 -0.12210122 0.28573924 395010
2.325 0.010038618 0.15403464 1709840
2.3080001 -0.17660362 0.25743693 789767
2.2179999 -0.13744414 0.1290078 1446670
2.25 0.0060771843 0.16726252 1381643
2.352 0.040575292 0.20147543 1382156
2.2019999 -0.0011724724 0.1815028 1447947
2.444 -0.10008258 0.39515388 658182
2.1340001 -0.025286745 0.17589782 1577741
2.473 -0.19322723 0.41984296 264453
2.2420001 -0.16067941 0.12315091 1578770
2.586 0.098962821 0.20060605 1579022
2.415 -0.18088669 0.35530898 330244
2.3429999 0.036632068 0.1969147 1513229
2.454 -0.11636174 0.3928014 723975
2.3 0.047115106 0.22306259 1381645
2.5650001 0.081571691 0.20312585 1579281
2.444 -0.096131325 0.39515388 658182
2.2909999 -0.14937557 0.29259738 789255
2.25 -0.13215189 0.27644297 657669
2.388 -0.12095364 0.35906169 461578
2.3 -0.090467289 0.30862772 459520
2.3 -0.034690641 0.1263368 1448210
2.194 -0.054374281 0.14890447 1578771
2.3080001 -0.11317021 0.32463387 526855
2.21 -0.011895549 0.16071433 1775120
2.5439999 0.11380722 0.22203729 1250831
2.2420001 0.064050354 0.3769995 1184526
2.454 0.093911357 0.23402877 1250059
2.503 -0.15510491 0.41683891 396037
2.493 -0.11821102 0.41114116 658182
2.454 0.058204602 0.19830494 1381645
2.3429999 0.047995955 0.21586357 1185038
2.2179999 -0.0011809916 0.17205887 1513229
2.1340001 -0.03563695 0.16554266 1250316
2.2260001 0.042000424 0.23748897 1250059
2.2019999 -0.036772523 0.14944743 1709838
2.454 0.066139437 0.20227425 1316109
2.2179999 0.0059907534 0.18640922 1184775
2.444 -0.17910758 0.37538818 461830
2.3080001 0.092055507 0.3806313 657922
2.171 -0.004665853 0.18597072 1184774
2.533 0.096934587 0.15142657 1053969
2.1789999 -0.011728687 0.17255799 1447436
2.444 -0.18701008 0.37934133 592646
2.3429999 0.0063283746 0.12869875 1710356
2.483 -0.12576544 0.40547577 592389
2.1340001 -0.025286745 0.17589782 1577741
2.388 -0.1363965 0.35133657 462089
2.3970001 0.025850549 0.13941915 1447697
2.266 -0.030514348 0.35171336 919297
2.3429999 0.074511684 0.23860222 1184262
2.3789999 0.098733529 0.28074837 1249036
2.3970001 -0.032278415 0.40694037 132097
2.415 0.029949035 0.14827858 1513742
2.473 -0.17723469 0.39584267 330244
2.3970001 -0.17953846 0.34102935 658182
2.352 -0.18377292 0.27375773 986633
2.3340001 0.0176243 0.15840612 1513231
2.2179999 -0.037039716 0.14694574 1775631
2.2579999 -0.052309863 0.13863893 1971985
2.3789999 -0.17434408 0.33462042 855561
2.3169999 -0.17729229 0.26593623 921351
2.352 0.105218 0.34984437 1315082
2.575 0.081889711 0.19558771 1644817
2.352 0.025365245 0.39549637 1378052
2.3 -0.034690641 0.36815128 263424
2.3970001 -0.090407379 0.37204629 329217
2.3 0.050833549 0.21934237 1315852
2.2420001 0.0060555767 0.17754704 1447436
2.3169999 0.04746335 0.21721588 1185038
2.4059999 0.06873557 0.21777616 1250316
2.1789999 -0.03286561 0.15493545 1644815
2.483 -0.12977976 0.40547577 592389
2.3169999 -0.10237374 0.32964748 263172
2.3080001 -0.090781957 0.32463387 328706
2.444 0.10538242 0.26470023 1118473
2.3080001 -0.049736809 0.350766 263424
2.2420001 0.067675024 0.3806259 855560
2.3340001 -0.099351451 0.33584133 131586
2.1340001 -0.03908702 0.16899438 1642507
2.388 -0.16728221 0.34361145 461830
2.234 -0.02285995 0.14800577 1579024
2.483 -0.08562243 0.40949199 198658
2.3169999 -0.10611966 0.32964748 329478
2.2420001 -0.12443268 0.26458085 656388
2.266 -0.11843774 0.28940448 263681
2.3169999 -0.042438906 0.36712468 263424
2.194 -0.054374281 0.14890447 1578771
2.3340001 -0.17104627 0.30563959 592650
2.283 -0.093489572 0.29526839 656641
2.1789999 -0.018774329 0.16198447 1708813
2.1559999 0.012794565 0.21607155 1707789
2.2579999 -0.059610948 0.13863893 1971985
2.3080001 -0.12436435 0.31716752 789768
2.2260001 -0.06596376 0.14747575 1250576
2.503 0.099833161 0.226556 1053969
2.493 0.051068678 0.15306769 1579281
2.444 -0.10008258 0.39120075 658182
2.425 -0.18555623 0.36462504 396037
2.483 -0.08562243 0.41350821 133377
2.234 -0.14927085 0.12993842 1905677
2.2019999 0.045107592 0.24561356 1446155
2.3340001 -0.084257804 0.33584133 263170
2.503 -0.16724482 0.42493606 461060
2.2260001 0.063593261 0.25909215 1380875
2.2579999 0.002448251 0.16055267 1775633
2.3699999 0.086865172 0.24518524 1184264
2.5439999 0.08090385 0.20557773 1316109
2.513 -0.15978739 0.42663378 329474
2.1340001 -0.0080364021 0.19660814 1511430
2.434 0.077405654 0.22424752 1184523
2.1489999 0.0058043865 0.21189404 1575950
2.2179999 0.020334244 0.20434716 988174
2.3340001 0.032717947 0.18860787 1709838
2.283 -0.16730875 0.25464839 592901
2.483 0.050863829 0.16450238 1447184
2.25 -0.11032625 0.27280363 918530
2.142 -0.03923355 0.16269858 1316622
2.434 -0.14295898 0.36991528 330505
2.3080001 -0.10570746 0.32090068 132097
2.3080001 -0.023617173 0.12677623 1644815
2.473 -0.069285057 0.41584289 67074
2.2909999 -0.016035432 0.37412202 394497
2.483 -0.18597998 0.41752443 67072
2.4059999 0.029837424 0.15550934 1447949
2.25 0.027902829 0.21457405 1118990
2.4630001 -0.18846391 0.39424199 264451
2.2420001 -0.13893136 0.26458085 526342
2.3429999 -0.095946595 0.34850568 328963
2.234 0.074657023 0.37204081 724232
2.2739999 -0.074738979 0.13226499 1906960
2.3 -0.16855459 0.27142549 723721
2.523 0.10878881 0.13858598 1186319
2.352 -0.16476037 0.31940973 789768
2.3429999 -0.17928176 0.29544884 526857
2.415 -0.18088669 0.3592152 396037
2.3610001 0.07508412 0.23279749 1250055
2.3789999 -0.097420804 0.36155644 526596
2.1789999 0.019976698 0.21837658 1446155
2.2579999 -0.07421311 0.13863893 1971983
2.2909999 -0.10122496 0.3111257 263170
2.3610001 -0.16539082 0.32445085 724487
2.142 -0.025381541 0.1696279 1511950
2.142 -0.018455535 0.18695121 1774091
2.283 0.08367645 0.3875865 395009
2.266 -0.12210122 0.28940448 329474
2.194 0.013020072 0.20213601 792077
2.3970001 0.08785478 0.23634714 1184775
2.3169999 -0.001233705 0.13476604 1709587
2.3 -0.17599148 0.24910416 592901
2.3080001 0.080861375 0.25370377 1184012
2.171 0.0093736947 0.21406326 1510668
2.586 0.086420357 0.19642322 1644817
2.142 -0.028844543 0.17309257 1774352
2.3699999 0.02939098 0.17234975 1381902
2.3169999 0.069938913 0.24719764 1184266
2.3610001 -0.18447614 0.28626195 921354
2.388 -0.066903643 0.37837452 197377
2.3169999 -0.15856265 0.29966572 789516
2.2579999 -0.019454995 0.36142853 722434
2.2019999 -0.061692558 0.14944743 1710357
2.234 -0.11315345 0.12271149 1381643
2.533 0.068268619 0.14732946 1250578
2.2420001 -0.14980538 0.12315091 1709842
2.523 0.084314987 0.14266691 1317141
2.3340001 0.096865937 0.37359351 2761247
2.3610001 -0.020342447 0.39700973 263683
2.25 -0.16125275 0.1345084 1971985
2.3080001 0.024890725 0.18650684 1446668
2.266 -0.14041859 0.27474356 723462
2.25 -0.12851429 0.27280363 591106
2.2420001 -0.12805735 0.26820725 590595
2.352 -0.13434027 0.33843139 330757
2.2019999 -0.0047324775 0.17437939 1381643
2.415 0.096323244 0.24593443 1053702
2.2420001 0.049551658 0.23556958 1118730
2.171 0.0093736947 0.21406326 1510668
2.415 -0.063755728 0.3943713 132613
2.3080001 -0.060930941 0.33583334 590849
2.2579999 -0.077863649 0.13863893 1775374
2.3610001 0.10562062 0.35500196 2499097
2.283 0.013548234 0.17340843 1316363
2.325 -0.0049968255 0.12771003 1841943
2.473 -0.17323656 0.39984271 330244
2.164 -0.039636508 0.15736914 1579024
2.2420001 0.071299702 0.26820725 1184013
2.25 0.016990006 0.20001666 1317390
2.266 0.0097838743 0.17944764 1447436
2.2739999 0.050258908 0.38605857 591875
2.325 0.0213152 0.17659861 1250570
2.1340001 -0.021836676 0.18625298 1773578
2.5439999 0.076790929 0.16031393 1185552
2.2739999 -0.019592851 0.13962132 1644563
2.2579999 -0.045008782 0.13498665 1971985
2.3699999 -0.1698529 0.32568762 789768
2.444 0.050064921 0.18959056 1709840
2.3789999 0.021810263 0.15376422 1513742
2.266 -0.10744732 0.28940448 263424
2.425 0.10064263 0.25479761 1184777
2.388 -0.070764363 0.37451196 328706
2.2420001 -0.15705474 0.22831675 1181956
2.352 0.093810461 0.39930069 395520
2.325 -0.038826574 0.37591359 263424
2.415 -0.17698231 0.35530898 330757
2.234 -0.055365611 0.14077882 1841428
2.266 -0.0085334992 0.15012582 1644047
2.473 -0.19322723 0.41984296 264453
2.454 0.042334937 0.1665504 1579024
2.2019999 -0.0011724724 0.18506451 1316361
2.2260001 0.024006391 0.2158858 1118990
2.164 -0.036137938 0.15736914 1709840
2.5650001 0.11474667 0.18238157 1447185
2.2579999 -0.17277771 0.1495958 2037265
2.3340001 0.10063935 0.3698183 2103058
2.234 0.067433544 0.37204081 1316112
2.513 -0.11103375 0.42256904 658182
2.5539999 0.11425458 0.16507517 1578001
2.2579999 -0.16182609 0.25185987 592901
2.5439999 0.08090385 0.20557773 1316109
2.415 0.10022761 0.40218377 855299
2.483 -0.18196568 0.40547577 133378
2.473 0.046660848 0.15183972 1579535
2.266 -0.089129947 0.12813444 1644045
2.5439999 0.068565093 0.15619905 1118990
2.493 -0.10208914 0.41114116 592135
2.533 0.10102972 0.14323236 1053966
2.2019999 0.020187559 0.21355818 1184526
2.3429999 -0.099734552 0.34471592 328963
2.2909999 -0.060482144 0.12584244 1381904
2.434 -0.11147832 0.38566312 592389
2.266 -0.030514348 0.13546489 1841426
2.2579999 0.057206366 0.37968996 789255
2.2909999 -0.034554895 0.35929936 591360
2.3340001 0.08177229 0.24523613 1118473
2.513 -0.15978739 0.42663378 329474
2.1789999 0.012931056 0.21132757 1118220
2.425 -0.12282772 0.38031468 592648
2.3169999 -0.04618483 0.35962924 263424
2.2420001 0.064050354 0.3769995 1184526
2.3340001 -0.054070514 0.36226785 197888
2.473 -0.17723469 0.39984271 330244
2.2179999 0.0095766261 0.19717199 1185802
2.283 0.091058373 0.36543015 3683119
2.575 0.07772667 0.17059751 1776149
2.2420001 -0.037440505 0.14128296 1775635
2.444 -0.19096132 0.37934133 592646
2.2909999 -0.17159893 0.23330674 921353
2.283 -0.0012156015 0.14755936 1841428
2.3789999 0.071810387 0.2307243 1381641
2.513 0.10835762 0.23559064 1053715
2.3610001 -0.0088912584 0.39319086 131840
2.2260001 -0.13434108 0.12587258 1053452
2.444 0.034259923 0.15005915 1579533
2.2420001 -0.15343006 0.12677732 1775633
2.2179999 -0.05496908 0.14694574 1644564
2.21 -0.001176732 0.17858757 1513229
2.503 -0.12273183 0.41683891 789255
2.266 -0.15873596 0.25641742 723974
2.434 0.034119744 0.16125606 1315852
2.234 0.016869189 0.20220779 922634
2.5439999 0.11380722 0.14796928 1381391
2.3610001 0.055998806 0.21370304 1119243
2.3610001 0.021645242 0.16023859 1513231
2.3 0.091736421 0.29002661 1379848
2.266 -0.1257647 0.28940448 526596
2.5439999 0.076790929 0.20557773 1250316
2.3610001 0.055998806 0.21752194 1316109
2.194 -0.022450641 0.15600201 1775374
2.2019999 -0.0047324775 0.17081767 1513229
2.493 -0.15448524 0.41114116 461832
2.434 -0.060322244 0.401411 66306
2.164 -0.022143658 0.16436963 1905938
2.5439999 0.064452171 0.18088838 1644564
2.234 -0.17455302 0.12271149 1382417
2.2739999 0.053935319 0.3823804 723462
2.2579999 -0.10341744 0.28107819 984577
2.283 -0.13039917 0.29526839 658182
2.5439999 0.1096943 0.15208416 1381392
2.3429999 -0.073218822 0.34471592 459520
2.3610001 -0.13867138 0.33972639 396550
2.3789999 -0.089728475 0.36540446 329216
2.266 -0.089129947 0.12446921 1579281
2.2579999 0.057206366 0.37968996 789255
2.4059999 -0.14909406 0.35787651 396296
2.415 -0.087181918 0.37874639 394497
2.2909999 -0.064186037 0.12584244 1381904
2.2579999 -0.04135824 0.13863893 1906192
2.266 -0.11111079 0.28940448 197632
2.3169999 0.073684841 0.24719764 1118473
2.434 -0.17443964 0.3659783 396037
2.3169999 -0.17729229 0.26593623 921351
2.575 0.086052753 0.20391777 1579281
2.2579999 -0.15087447 0.25551215 723461
2.454 -0.11239433 0.39677072 723975
2.325 -0.080174044 0.33830699 328452
2.352 -0.073500074 0.35364869 328704
2.3610001 0.006376992 0.39700973 854533
2.266 -0.16606291 0.23809129 724232
2.234 -0.004801251 0.1552327 1709840
2.513 -0.10697095 0.42663378 527108
2.2260001 0.042000424 0.23388843 1315852
2.3 -0.12765172 0.30862772 657668
2.415 -0.1574605 0.35530898 264964
2.3 0.047115106 0.21934237 1250316
2.21 0.013115023 0.20003547 923145
2.575 0.07772667 0.18725765 1709842
2.1559999 -0.0011479793 0.20212233 1446668
2.2909999 -0.038258787 0.35929936 525568
2.5539999 0.097738229 0.1609441 988173
2.4630001 0.070363969 0.21098383 1185036
2.3789999 0.098733529 0.28844437 1052427
2.2579999 0.046254743 0.23359843 1380873
2.2739999 -0.096797429 0.29410437 459776
2.3699999 -0.10854709 0.35635519 658441
2.415 0.092418879 0.24593443 1118984
2.3610001 -0.16920789 0.31681305 658441
2.25 0.082466938 0.36742669 658694
2.283 -0.16730875 0.25464839 592901
2.388 -0.1363965 0.35519913 396298
2.2579999 -0.15452501 0.25551215 723974
2.2420001 0.06042568 0.3769995 855561
2.3429999 0.010116336 0.14006807 1710610
2.25 0.035178043 0.22185275 1315852
2.3340001 -0.061617337 0.34716699 328704
2.483 -0.13379405 0.40547577 658182
2.234 -0.12037693 0.12271149 1185038
2.5439999 0.076790929 0.15619905 1119760
2.415 0.10022761 0.26155937 1118473
2.3610001 0.010194055 0.39319086 1181956
2.454 -0.19174267 0.38883209 461060
2.493 -0.16254617 0.39904398 396039
2.5650001 0.089865439 0.20727471 1316109
2.1559999 -0.025547432 0.16027467 1906192
2.3 -0.14996238 0.30118728 657669
2.4630001 0.074345939 0.21895158 1185038
2.388 0.087524913 0.24318485 1184264
2.434 -0.087867826 0.39353704 526342
2.3080001 0.036084853 0.20143948 1250570
2.325 -0.1703867 0.2894184 658443
2.3 -0.049564414 0.13005702 1775633
2.2260001 0.049198035 0.24108949 1315598
2.21 -0.029760242 0.14999038 1709838
2.3789999 -0.097420804 0.36540446 592389
2.2179999 0.034677733 0.22946028 1512461
2.283 -0.11194437 0.30265382 132096
2.444 -0.18305883 0.38329446 396037
2.2579999 -0.077863649 0.13498665 1775374
2.2579999 0.038953662 0.22629385 1446668
2.425 -0.16595356 0.36070263 330757
2.352 -0.18377292 0.28136641 855048
2.283 -0.17469066 0.22879931 1184012
2.2420001 0.06042568 0.3806259 723974
2.5439999 0.076790929 0.20557773 1250316
2.2179999 0.016748371 0.20434716 922894
2.425 -0.10322505 0.38031468 658182
2.25 0.0060771843 0.17090188 1381643
2.3429999 0.093451492 0.27649996 1249036
2.5539999 0.093609139 0.1609441 988940
2.3610001 -0.1272202 0.33972639 396039
2.3080001 -0.13555847 0.3097012 723461
2.454 -0.16000333 0.37692416 396039
2.388 -0.18658578 0.33588633 789254
2.3080001 -0.031079927 0.37689814 394756
2.266 -0.14408207 0.27474356 723975
2.1559999 -0.0011479793 0.20212233 1446668
2.4059999 -0.18410239 0.35009316 264964
2.142 -0.021918537 0.18002188 1511948
2.5650001 0.07327795 0.18653043 1578770
2.3970001 0.083979517 0.2285929 1381643
2.3789999 0.048733409 0.20378828 1382415
2.1340001 -0.028736813 0.17934954 1642766
2.3080001 -0.02734855 0.37689814 394756
2.5439999 0.064452171 0.18088838 1644564
2.3789999 -0.13203627 0.35001245 462091
2.2420001 0.035052966 0.22469035 1446668
2.2579999 -0.052309863 0.13863893 1971985
2.503 0.11197307 0.24275029 988174
2.2260001 -0.029975701 0.14387523 1710356
2.483 -0.15386556 0.40145954 461578
2.3 0.047115106 0.22306259 1381645
2.3 0.017367562 0.17469969 1316363
2.21 0.034552656 0.2322073 1315852
2.473 -0.17723469 0.3918426 396037
2.444 -0.19096132 0.38329446 526853
2.454 -0.12429658 0.38883209 526855
2.2260001 0.038401615 0.23748897 1315852
2.3699999 0.037054203 0.18385009 1709838
2.5539999 0.077092782 0.16507517 1514003
2.3080001 -0.180335 0.23503795 987659
2.2909999 -0.11233664 0.3111257 461062
2.493 -0.17463759 0.42323837 329474
2.3340001 -0.10689827 0.33961657 395271
2.575 0.07772667 0.17476255 1709842
2.2420001 0.074924372 0.3806259 658179
2.3080001 0.05474174 0.22010531 1315850
2.5650001 0.094012313 0.16578615 1250827
2.3169999 -0.04618483 0.35588151 263424
2.3169999 -0.068660393 0.33714291 590595
2.352 -0.18377292 0.27756205 855048
2.142 -0.021918537 0.17309257 1511950
2.533 0.064173482 0.18830045 1512977
2.575 0.081889711 0.17476255 1709842
2.3080001 0.099518262 0.35823232 3023899
2.234 0.085492246 0.35758695 3881525
2.3 -0.090467289 0.30862772 459520
2.3610001 0.04836468 0.20606527 1185036
2.325 -0.17414556 0.2706151 789767
2.3080001 -0.023617173 0.12677623 1644815
2.5439999 0.072678015 0.20146284 1447695
2.2739999 -0.015916442 0.13962132 1775635
2.415 0.049470861 0.19515339 1579024
2.434 0.10495123 0.27542809 1315084
2.3 0.0099306758 0.15981881 1579024
2.352 -0.17236538 0.31180105 526857
2.3340001 -0.17104627 0.29808918 658443
2.325 0.070180394 0.24052982 1315850
2.21 0.063136168 0.2608045 1446157
2.3340001 -0.099351451 0.33584133 131586
2.483 0.050863829 0.16048616 1513490
2.3789999 0.0179641 0.1383722 1644563
2.3789999 0.075656556 0.2268763 1381641
2.2579999 -0.11071852 0.28107819 591361
2.266 -0.0085334992 0.15012582 1644047
2.3169999 -0.012471487 0.38211554 394756
2.3 0.065707318 0.24538393 1118730
2.3080001 -0.012423043 0.13050939 1775635
2.5539999 0.072963692 0.16507517 1513490
2.3789999 -0.18588257 0.33077243 789767
2.3080001 0.080861375 0.25370377 1184012
2.352 0.03677278 0.19006243 1709838
2.3429999 -0.11867436 0.34092614 264712
2.415 -0.17698231 0.35530898 330757
2.3610001 -0.13867138 0.33972639 396550
2.4059999 -0.1374246 0.36176819 330505
2.2420001 -0.17155343 0.13040373 1644817
2.234 -0.14927085 0.12993842 1905677
2.2579999 -0.17277771 0.14229122 1775120
2.2260001 -0.13074227 0.25549161 460292
2.266 -0.023187399 0.13546489 1644815
2.3 -0.12765172 0.30862772 657668
2.513 0.10429481 0.22746114 1119762
2.388 -0.1093715 0.36678681 790027
2.3 -0.012379983 0.13377725 1775122
2.513 0.055541176 0.17461942 1447184
2.575 0.07772667 0.19142267 1512463
2.2420001 0.049551658 0.23556958 1118730
2.352 0.017760219 0.15582344 1579022
2.2909999 -0.16048725 0.27406904 658441
2.2739999 -0.0048872177 0.14329949 1643794
2.1789999 0.0094082355 0.21132757 1249036
2.3 -0.17970993 0.21934237 1510408
2.3610001 0.01782818 0.39700973 1115909
2.2260001 0.04559923 0.24108949 1315598
2.3429999 0.021480221 0.17038627 1119243
2.3080001 -0.02734855 0.37316498 328704
2.3 0.088017978 0.29002661 1510921
2.533 0.076458894 0.14732946 1185301
2.5650001 0.1105998 0.17823271 1249806
2.325 -0.038826574 0.37967426 263170
2.2739999 -0.14459074 0.28306988 855561
2.493 -0.15851571 0.40710878 396039
2.5650001 0.1105998 0.17823271 1249806
2.3429999 0.097239457 0.30302837 1444613
2.3789999 0.098733529 0.28074837 1249036
2.194 0.0094730016 0.20568478 857871
2.3970001 0.095605306 0.25573272 921351
2.25 -0.11032625 0.27644297 853250
2.483 -0.12977976 0.40547577 592389
2.5439999 0.08090385 0.16031393 1185552
2.325 0.092733555 0.2818971 1052427
2.473 0.110631 0.24784088 1185036
2.2739999 -0.10415024 0.29410437 263424
2.415 0.0026184793 0.40999624 131584
2.434 -0.15082915 0.3659783 396298
2.266 0.013447349 0.17578241 1382156
2.283 -0.11563533 0.30265382 132096
2.3340001 0.0025306544 0.13575482 1775635
2.2019999 -0.0011724724 0.1815028 1447947
2.3 0.047115106 0.22306259 1381645
2.3610001 -0.066147201 0.36263973 263424
2.194 0.0059259301 0.1914897 1251080
2.493 -0.10611961 0.41114116 657928
2.4059999 0.064845756 0.20999281 1119243
2.2420001 0.067675024 0.3769995 855560
2.187 0.030657303 0.2333281 1380875
2.3 -0.13880704 0.3049075 723461
2.3 0.0024937899 0.14865814 1775633
2.3970001 -0.098157912 0.37204629 592389
2.21 -0.011895549 0.16071433 1775120
2.3340001 0.077998884 0.24901134 1118473
2.5439999 0.089129694 0.21380751 1316109
2.2579999 -0.070562571 0.13498665 1971983
2.4630001 -0.05705899 0.41814524 66304
2.2579999 -0.11436906 0.28107819 460290
2.523 0.092472926 0.13858598 1251346
2.3169999 -0.10237374 0.32964748 263172
2.3970001 -0.18728898 0.34490648 527623
2.3340001 0.040264767 0.20370874 1184777
2.2909999 0.069154099 0.25554073 1118732
2.3610001 -0.13867138 0.33972639 396550
2.493 -0.17463759 0.42323837 329474
2.325 -0.17790443 0.27437577 920841
2.4630001 -0.17253605 0.38229039 461830
2.142 -0.028844543 0.1696279 1708559
2.1789999 -0.0046830466 0.1831315 1250568
2.415 -0.13403431 0.37093392 395785
2.234 -0.058977351 0.14077882 1841426
2.3610001 -0.13103727 0.34354529 265480
2.234 -0.004801251 0.15884617 1841426
2.3169999 -0.012471487 0.38211554 394756
2.444 -0.13959508 0.38329446 329992
2.5539999 0.072963692 0.16507517 1513490
2.575 0.07772667 0.19558771 1513231
2.1340001 -0.0080364021 0.19660814 1511430
2.2019999 -0.0082924822 0.17437939 1381643
2.503 -0.13891837 0.41683891 658181
2.2260001 -0.12714347 0.25549161 787974
2.2579999 -0.037707701 0.13863893 1775120
2.2179999 -0.14103001 0.24739823 591876
2.142 -0.028844543 0.16616325 1644047
2.533 0.10512486 0.14732946 1316111
2.266 -0.16606291 0.23442605 723974
2.434 -0.079997659 0.3896001 460549
2.3610001 -0.16920789 0.32063195 724234
2.2909999 -0.10122496 0.3111257 263170
2.434 0.045924991 0.18094088 1644047
2.25 0.0060771843 0.16726252 1381643
2.4630001 0.046472166 0.13927411 1381902
2.25 -0.17580318 0.1345084 1775631
2.2579999 -0.16912718 0.1495958 2102545
2.513 0.079917997 0.13803668 1513748
2.3970001 -0.020652624 0.40694037 329217
2.575 0.086052753 0.17476255 1709327
2.283 -0.15623587 0.27680475 724234
2.2579999 -0.055960406 0.13498665 1840399
2.2579999 0.042604201 0.22629385 1446668
2.483 -0.11773685 0.40547577 658182
2.3340001 -0.046523694 0.3698183 329216
2.2019999 -0.0011724724 0.1815028 1447947
2.3169999 -0.13234116 0.31840432 789254
2.3 -0.090467289 0.31234795 262913
2.187 0.037728813 0.23686555 1512463
2.3970001 -0.0090268301 0.40694037 197632
2.325 0.077698112 0.2518118 1118219
2.3080001 0.080861375 0.25743693 1184525
2.3970001 0.021975284 0.13941915 1512977
2.3970001 -0.18728898 0.34102935 658181
2.352 0.021562733 0.16343211 1316109
2.4630001 0.046472166 0.15919347 1447695
2.3340001 -0.10312486 0.33961657 263172
2.444 0.042162422 0.16982485 1579024
2.25 0.064278901 0.25824624 1184266
2.415 0.10022761 0.40218377 855299
2.4059999 0.10763372 0.38122657 2102545
2.415 0.096323244 0.24202819 1119241
2.2420001 0.002430903 0.16304141 1513229
2.2909999 -0.019739324 0.37412202 394499
2.325 0.0062797572 0.14275266 1644047
2.3970001 -0.15241161 0.34878358 396550
