# .PCD v0.7 - Point Cloud Data file format
VERSION 0.7
FIELDS x y z rgba
SIZE 4 4 4 4
TYPE F F F U
COUNT 1 1 1 1
WIDTH 1240
HEIGHT 1
VIEWPOINT 0 0 0 1 0 0 0
POINTS 1240
DATA ascii
2.2579999 -0.38815963 -0.16450098 657154
2.473 -0.34115821 -0.28416553 1708290
1.786 -0.42251894 -0.1474476 723713
2.1129999 -0.41447529 -0.23938118 527106
2.733 -0.13842809 -0.19910593 263936
2.444 -0.36876756 -0.20572354 592388
1.9910001 -0.40985766 -0.18047397 593669
1.918 -0.41033453 -0.18936861 921092
1.947 -0.36302713 -0.12924686 918784
1.602 -0.45150888 0.010259849 2826777
2.652 -0.1514755 -0.23610066 329216
2.503 -0.321017 -0.27951559 1774594
2.503 -0.18343136 -0.27546704 592640
2.493 -0.18672898 -0.22194532 394496
1.781 -0.4472504 -0.000116749 2170642
1.675 -0.42875531 -0.17892312 592388
1.689 -0.44599211 -0.068409152 2102794
1.8710001 -0.40935403 -0.16959658 855558
2.493 -0.18672898 -0.27839887 330496
2.473 -0.20122349 -0.25216514 854784
1.7410001 -0.42876136 -0.14091647 724485
2.194 -0.32749876 -0.13499704 918784
1.614 -0.44184411 -0.041875817 1580295
1.7029999 -0.44418237 -0.049694117 2367243
2.444 -0.24627882 -0.24130182 2563082
2.325 -0.38464177 -0.22955267 264704
2.434 -0.27675179 -0.22850358 656640
2.483 -0.32648054 -0.26924971 1641984
2.444 -0.25023007 -0.24130182 2366473
1.765 -0.42611143 -0.14000416 920322
1.96 -0.40981367 -0.20619647 790017
2.266 -0.39319834 -0.17241426 591361
1.6619999 -0.45229745 -0.11570436 1118724
2.444 -0.28974256 -0.23734868 920322
1.751 -0.42839321 -0.13889365 724226
1.755 -0.44639584 -0.017147195 2105619
1.602 -0.45150888 0.002486201 2235923
2.454 -0.34647194 -0.2581664 1051649
2.493 -0.19075945 -0.27436647 395520
2.513 -0.12728496 -0.10584817 592901
2.454 -0.23935167 -0.26610503 1904640
1.8329999 -0.4217841 0.014704121 2171161
2.105 -0.39929333 -0.16356899 592386
2.5539999 -0.17065252 -0.14475469 1708801
1.7359999 -0.42191675 -0.18824708 395520
2.523 -0.17673911 -0.21645428 263424
1.918 -0.38552767 -0.1304241 1048832
2.444 -0.32135257 -0.16223899 1248258
1.671 -0.43853754 -0.14065632 1445641
2.4630001 -0.22828358 -0.171468 329216
2.1559999 -0.40199614 -0.17101924 395009
2.1129999 -0.41105917 -0.20178591 789765
1.582 -0.44331443 -0.056398761 2037768
2.5650001 -0.16309378 -0.24909957 2169352
2.675 -0.1484645 -0.15161268 198912
1.594 -0.45183122 0.012786889 2761499
1.582 -0.45098737 -0.018015768 2170642
1.6619999 -0.44961047 -0.072692111 1710091
2.6300001 -0.14596696 -0.27668199 723713
1.765 -0.42611143 -0.14285903 854529
2.5439999 -0.16998434 -0.25940484 2432523
2.533 -0.1856299 -0.18043834 460289
2.1340001 -0.11843859 -0.076077722 1379586
1.594 -0.44925416 -0.11097036 921603
1.582 -0.44587207 -0.14084135 1116674
2.425 -0.33845699 -0.16097772 1379844
1.675 -0.4450033 -0.067842118 2037514
1.77 -0.44162646 -0.014430798 2432274
2.415 -0.37610495 -0.21109493 329728
1.707 -0.44246593 -0.06085505 1973002
2.698 -0.13229343 -0.15728025 329728
1.801 -0.43189093 -0.0059442525 1776403
2.1129999 -0.3359046 -0.13001311 918272
2.473 -0.32116753 -0.2321649 262912
1.6569999 -0.45093676 -0.093914844 1185287
2.6860001 -0.13604753 -0.23478302 395009
1.5700001 -0.44248998 -0.045813132 1710857
1.558 -0.44414559 -0.058063202 1905928
1.649 -0.44342771 -0.045451142 1711629
1.76 -0.42205888 -0.16807534 461313
2.3429999 -0.38383168 -0.24269918 396037
2.4630001 -0.35968852 -0.23520999 132864
2.4630001 -0.34774262 -0.171468 459776
2.454 -0.21951459 -0.26213571 985856
2.721 -0.13782029 -0.21143526 132352
1.972 -0.41232273 -0.19788983 855299
1.707 -0.42038807 -0.19062451 658433
2.454 -0.23141684 -0.24625845 1576963
2.444 -0.27393758 -0.24525495 2300686
2.0840001 -0.40541756 -0.18553311 724483
2.0369999 -0.40615401 -0.15828505 854531
1.712 -0.44929761 -0.041649323 1841675
1.707 -0.42866728 -0.17129713 592386
2.187 -0.40070471 -0.21239015 1052161
1.5700001 -0.44756648 -0.14231248 854529
2.483 -0.32246622 -0.25720105 1905669
1.755 -0.42653453 -0.12217879 986369
2.513 -0.19635262 -0.16275464 657154
2.5439999 -0.17409727 -0.23883037 2300433
2.1270001 -0.40346646 -0.20656326 790017
2.523 -0.18081808 -0.18788783 460289
1.623 -0.44430792 -0.16024257 266504
2.1270001 -0.41034397 -0.23408644 592386
2.454 -0.25125393 -0.26213571 1840129
2.234 -0.39848089 -0.20250069 592901
1.954 -0.37696853 -0.13603269 722432
1.5700001 -0.44756648 -0.071207695 1709581
1.558 -0.44414559 -0.055543154 2169102
2.444 -0.24627882 -0.15828586 525568
2.675 -0.13116565 -0.15161268 460800
2.533 -0.1856299 -0.15995285 919297
1.8329999 -0.40696692 -0.19283578 331010
2.0699999 -0.38930765 -0.15415291 395520
2.3789999 -0.17819023 -0.13098809 2299659
1.7029999 -0.43592256 -0.074485362 2168849
1.6619999 -0.44692349 -0.070003845 1907211
2.473 -0.32916382 -0.2321649 262912
1.684 -0.44739437 -0.038244292 1908238
2.483 -0.20605148 -0.20499015 526082
2.473 -0.30517501 -0.20016453 393984
2.483 -0.33049485 -0.27326593 2233605
2.1559999 -0.41245306 -0.24425264 854529
1.675 -0.4395873 -0.13557443 1117190
2.454 -0.29886293 -0.15893351 1379844
2.3970001 -0.37717694 -0.20564444 395008
2.3340001 -0.38613072 -0.21156517 198144
2.4630001 -0.21633768 -0.22325836 329217
1.722 -0.44357005 -0.039107285 2498578
1.574 -0.44361734 -0.038292076 1842443
2.4630001 -0.27208522 -0.2750487 394496
1.7309999 -0.42909718 -0.095309116 1839360
1.614 -0.44445348 -0.018380182 2105364
1.849 -0.41051927 -0.17059313 920576
1.7410001 -0.44846427 -0.011378314 2235923
2.4630001 -0.34376064 -0.25114548 1314821
1.619 -0.44844779 -0.12580436 987396
2.105 -0.40609968 -0.18740268 921605
1.751 -0.42556235 -0.11340366 1837314
1.786 -0.41963148 -0.15900293 396036
1.755 -0.41518518 -0.19598477 133632
1.76 -0.41921347 -0.18800279 264704
1.9910001 -0.4066388 -0.15793104 658179
1.77 -0.42445695 -0.15185259 592386
2.493 -0.20688133 -0.18968612 328704
2.5539999 -0.17065252 -0.14062361 2234887
1.86 -0.40093318 -0.21372741 330497
2.171 -0.40479296 -0.18976691 592901
1.707 -0.43418673 -0.096748725 1840389
2.483 -0.29035181 -0.28531459 263681
2.473 -0.20122349 -0.21616471 394752
2.483 -0.31042331 -0.20499015 459776
2.5969999 -0.16092987 -0.27741095 1973002
2.187 -0.40070471 -0.22653994 658433
2.483 -0.33852345 -0.22908749 66304
2.454 -0.23141684 -0.17878008 263424
2.434 -0.26494655 -0.22062966 394756
1.9 -0.39726835 -0.13534656 788738
2.3 -0.38794273 -0.22336413 330497
1.717 -0.4284026 -0.1584145 396036
2.675 -0.15278921 -0.19920728 198657
1.7029999 -0.43592256 -0.09101285 2038029
1.751 -0.42556235 -0.16438365 395520
1.671 -0.42773142 -0.18119866 527108
2.473 -0.29717875 -0.26816535 1314821
1.6440001 -0.45271468 -0.11976954 856322
1.675 -0.44771129 -0.059714239 2104337
1.653 -0.43648607 -0.16320454 396801
2.454 -0.27109101 -0.18274939 459520
2.4630001 -0.31190491 -0.21927449 263424
1.9349999 -0.41084313 -0.18165754 789765
1.8710001 -0.40330428 -0.19985978 462081
1.707 -0.44246593 -0.063616097 2103818
2.023 -0.40990379 -0.20627986 789506
2.503 -0.34125018 -0.21068986 262912
1.765 -0.44893941 -0.0086802999 2104849
1.671 -0.4331345 -0.15687326 658692
1.7309999 -0.41790304 -0.19050476 263936
2.6630001 -0.14349318 -0.30599791 723715
2.0569999 -0.40681621 -0.17647502 658690
2.444 -0.28974256 -0.22153611 198144
2.454 -0.21951459 -0.21450393 526336
2.325 -0.11400379 -0.086647585 1183498
1.817 -0.41516486 -0.15294586 724487
1.619 -0.43274304 -0.18603477 658179
2.454 -0.25918877 -0.17878008 459776
1.689 -0.42687768 -0.17495471 854531
2.444 -0.31740132 -0.16223899 1248258
1.765 -0.42896491 -0.14285903 920322
2.325 -0.38464177 -0.21827069 395522
1.684 -0.43378162 -0.15536985 658692
2.325 -0.38464177 -0.18442474 263424
1.947 -0.39135683 -0.1386946 591875
1.751 -0.44820929 -0.014275891 2039057
2.194 -0.40198728 -0.23791134 592899
2.434 -0.22559571 -0.19700786 328704
2.171 -0.40128309 -0.19327849 461829
2.234 -0.26845828 -0.13384478 1969411
1.636 -0.43728697 -0.17211093 396288
2.473 -0.34115821 -0.27616543 1839876
2.652 -0.16005056 -0.19320488 395522
2.415 -0.35658312 -0.16422012 526593
2.454 -0.23538426 -0.24625845 1708036
1.781 -0.43861228 -0.020281974 3153428
2.2579999 -0.26404124 -0.13528268 1904388
1.6799999 -0.42731911 -0.17130508 526336
1.755 -0.42369717 -0.15624309 592901
1.627 -0.44277254 -0.15274253 396549
1.666 -0.44261223 -0.13754071 1247749
1.653 -0.45252064 -0.12309892 855809
2.425 -0.25612581 -0.20020181 459520
2.6300001 -0.15447088 -0.21287209 263681
2.5439999 -0.16998434 -0.2635197 2564102
1.775 -0.46009198 0.014238851 2498578
2.513 -0.18010141 -0.2359201 2037774
2.523 -0.17673911 -0.22869705 460292
2.425 -0.24828474 -0.20804663 591361
2.454 -0.25918877 -0.27007434 1182720
2.0699999 -0.34245527 -0.12736732 1377025
2.652 -0.15576303 -0.1889153 461315
1.693 -0.44978544 -0.024756648 2169100
2.503 -0.20366454 -0.17020413 328704
2.4630001 -0.29199508 -0.25512934 1116928
2.2739999 -0.38355729 -0.15831029 394496
2.493 -0.33585635 -0.18565373 197632
1.594 -0.44410008 -0.025887251 2170129
2.0569999 -0.41679296 -0.23303697 592640
2.473 -0.19322723 -0.26816535 460800
1.923 -0.40829527 -0.20541441 592897
2.454 -0.22348201 -0.26610503 1314304
2.4630001 -0.28004918 -0.25512934 920064
1.717 -0.4395062 -0.063988775 2103818
2.4630001 -0.28004918 -0.25911322 657408
2.454 -0.28299326 -0.19465734 328704
1.619 -0.44583035 -0.0079622697 2105615
1.7359999 -0.43314323 -0.061888907 2759178
2.473 -0.30517501 -0.21216467 262912
1.717 -0.45616159 0.0082191275 2235408
2.513 -0.19635262 -0.17494889 262912
2.483 -0.19802287 -0.20900637 526082
1.717 -0.43395442 -0.13341945 593415
2.444 -0.28184006 -0.21758297 263424
2.1559999 -0.36713979 -0.13963351 590848
2.3699999 -0.38059163 -0.20716149 329729
2.187 -0.40070471 -0.21946505 855297
2.434 -0.26101145 -0.23244056 1182465
1.636 -0.45051169 -0.12977156 921090
2.473 -0.32516566 -0.17616422 393728
2.454 -0.24728651 -0.2581664 1971462
1.997 -0.41432136 -0.19716845 789506
2.6860001 -0.1534175 -0.173959 329216
2.266 -0.33824623 -0.14309244 722688
2.4630001 -0.2760672 -0.26708096 1117954
2.2019999 -0.39633304 -0.21740858 921345
1.9 -0.40955538 -0.16300561 790280
1.786 -0.42251894 -0.15033643 592386
2.454 -0.22348201 -0.27007434 1248513
1.6799999 -0.42731911 -0.17402245 788738
2.4059999 -0.37081349 -0.18695819 395009
2.608 -0.15739512 -0.27436754 1315331
1.582 -0.44842973 -0.015456902 2170640
2.473 -0.27318993 -0.28416553 395267
1.631 -0.44649798 -0.0080212858 2105615
2.493 -0.19075945 -0.28646368 200192
2.608 -0.15317872 -0.24062029 395009
2.1270001 -0.41378272 -0.23752685 592386
2.187 -0.40070471 -0.20885271 986883
2.434 -0.26494655 -0.21669269 395009
2.4630001 -0.31190491 -0.2471616 1577992
1.586 -0.44956356 -0.012930647 2237201
1.796 -0.41907743 -0.15408319 527108
1.619 -0.44844779 -0.12842308 855810
2.3 -0.38794273 -0.23080458 199424
2.454 -0.25918877 -0.26610503 1314304
2.444 -0.25023007 -0.16223899 394496
2.1489999 -0.41111392 -0.23650765 592386
1.671 -0.4520452 0.013404575 2301967
1.7410001 -0.42876136 -0.095859721 1904640
1.627 -0.45066372 -0.086951211 1250570
1.671 -0.44934368 -0.11092526 1381376
1.822 -0.41041598 -0.18283737 527106
2.5539999 -0.1789107 -0.17367214 328704
1.61 -0.44595489 -0.06781359 1972234
2.473 -0.20921977 -0.2321649 1249281
1.614 -0.44967222 -0.091477707 1053448
2.425 -0.24044368 -0.1492105 1511685
2.1789999 -0.37810203 -0.14817213 722434
2.3340001 -0.19746014 -0.13606082 2168590
1.598 -0.44263101 -0.036291197 1908490
1.9349999 -0.37955973 -0.13470994 722432
2.2019999 -0.14713268 -0.096310489 2556928
2.483 -0.35056636 -0.22105503 197377
1.844 -0.40642795 -0.18206242 724226
1.765 -0.43752542 -0.025809499 2497804
1.7309999 -0.4318957 -0.092509247 2102531
2.0769999 -0.36376083 -0.13787659 722432
1.822 -0.41336164 -0.16515499 462083
2.4630001 -0.20837376 -0.24317773 1775107
1.689 -0.44326147 -0.10119241 1316360
2.6300001 -0.15872283 -0.15757017 395520
2.503 -0.19961791 -0.15805842 853504
1.653 -0.4311412 -0.17657308 592901
2.234 -0.39125741 -0.23863536 462083
2.4630001 -0.30792293 -0.23520999 526593
2.454 -0.27109101 -0.26610503 1052161
2.0569999 -0.4101418 -0.17647502 658690
1.717 -0.4506098 -0.036216505 2169865
1.717 -0.4367303 -0.066766009 2234634
2.733 -0.13842809 -0.20352653 263936
1.582 -0.45098737 -0.099899486 1117444
2.3789999 -0.38203689 -0.2271882 395008
2.283 -0.38876629 -0.16632231 526082
2.3699999 -0.38059163 -0.23399562 592899
2.5439999 -0.14530683 -0.11538368 788738
1.7029999 -0.45244217 -0.013884547 2629138
2.434 -0.2295308 -0.20488179 525568
1.9119999 -0.40905091 -0.18568358 855299
1.755 -0.44072118 -0.031340655 2170383
2.454 -0.35837418 -0.24625845 527104
1.8660001 -0.40826008 -0.1540522 1183494
1.7410001 -0.42876136 -0.081779487 2625290
2.325 -0.29067025 -0.14305748 1839622
1.812 -0.42866984 -0.00011878113 1842192
2.444 -0.31345007 -0.15828586 1643016
1.59 -0.44555622 -0.030965902 2039054
2.6300001 -0.15021892 -0.25541204 723712
2.444 -0.30949882 -0.15828586 1643271
2.0569999 -0.40016505 -0.15983915 919811
1.726 -0.43064818 -0.13691059 528135
1.76 -0.41636804 -0.18515602 329728
1.781 -0.40981859 -0.19600751 2560
1.726 -0.42785773 -0.16203664 330756
2.3080001 -0.38929209 -0.21667473 395522
1.796 -0.41617382 -0.16860823 330497
1.649 -0.44076174 -0.1548079 397317
2.3970001 -0.3384243 -0.15911901 1314051
1.888 -0.39781165 -0.13449174 919811
1.6799999 -0.43818343 -0.14684865 789254
1.812 -0.41109291 -0.17597209 658179
2.3429999 -0.38004372 -0.17448322 526593
1.712 -0.45483324 0.0054260534 2366739
2.3080001 -0.38929209 -0.19800891 264704
1.7029999 -0.43867585 -0.09101285 1841165
2.473 -0.34115821 -0.17216419 459776
2.493 -0.35197821 -0.21791291 328704
2.503 -0.18343136 -0.24712703 1315072
2.675 -0.1484645 -0.20786083 198144
2.483 -0.30640903 -0.19294147 393728
2.0910001 -0.33916834 -0.1218951 2097664
1.623 -0.44955575 -0.076236703 1709842
2.5969999 -0.16932708 -0.1681949 592129
1.726 -0.43622905 -0.050365265 2628873
2.017 -0.41194898 -0.17630579 856073
1.801 -0.4056856 -0.20112169 265216
1.7410001 -0.42876136 -0.13246833 462342
2.6300001 -0.15021892 -0.13630021 657922
2.434 -0.3672587 -0.24818842 592899
2.1270001 -0.40346646 -0.19624208 921605
1.558 -0.44414559 -0.1664252 1052162
1.8279999 -0.41176751 -0.15978532 593416
1.9910001 -0.40341991 -0.15793104 658179
2.2179999 -0.39921284 -0.19387518 264451
1.6569999 -0.44825786 -0.064432889 1907209
2.105 -0.40269649 -0.16356899 658179
2.444 -0.30554757 -0.15828586 1577478
1.726 -0.4390195 -0.047573481 2694413
1.5779999 -0.44984707 -0.10985648 855810
2.3169999 -0.38331828 -0.25499684 657668
2.454 -0.30283034 -0.16290282 854272
1.631 -0.4438611 -0.05286938 1841418
1.6799999 -0.44904774 -0.089783669 1316363
2.3169999 -0.34960493 -0.15006068 657920
2.473 -0.20921977 -0.21216467 460289
2.473 -0.28518432 -0.17616422 459776
1.684 -0.4501169 0.0053373096 2235153
1.594 -0.44667712 -0.14448795 788738
2.425 -0.24044368 -0.21196903 788738
1.796 -0.41327021 -0.17732327 592386
2.3789999 -0.18972872 -0.13868411 2233613
1.817 -0.40341458 -0.20584743 462080
2.2579999 -0.12167014 -0.08415065 1117444
2.283 -0.18207258 -0.12939505 2430991
2.493 -0.21494228 -0.17758892 328704
2.388 -0.36417863 -0.27053586 461315
2.454 -0.2948955 -0.15893351 1248258
1.755 -0.45207053 -0.0029537363 2366739
1.9910001 -0.40341991 -0.15471062 658179
2.652 -0.16005056 -0.18462573 526593
1.689 -0.44053084 -0.10119241 1381896
2.503 -0.18343136 -0.20664129 394496
2.483 -0.30640903 -0.18089281 328704
2.608 -0.12366399 -0.299678 658181
1.6799999 -0.44904774 -0.081631534 1316109
2.142 -0.40631178 -0.22534329 396290
1.786 -0.41096914 -0.1907801 331010
2.434 -0.23740096 -0.18913393 262912
2.1340001 -0.20469031 -0.11404664 1508352
1.791 -0.44107503 -0.0059112469 2170129
2.473 -0.36114889 -0.20016453 329216
1.77 -0.42159536 -0.17475623 592386
2.454 -0.22744942 -0.26610503 1643008
1.786 -0.41963148 -0.17055827 330497
1.751 -0.42556235 -0.16721587 527106
2.454 -0.21951459 -0.25022778 854272
1.712 -0.45206541 -0.022265343 2497806
2.023 -0.41317442 -0.2160964 658432
2.0840001 -0.4087868 -0.19227479 791048
2.493 -0.31973445 -0.27436647 1905667
2.425 -0.23652315 -0.1492105 1445124
1.888 -0.40696871 -0.18946046 921092
1.966 -0.36339131 -0.13050812 918784
2.1340001 -0.38754395 -0.15546727 460544
1.812 -0.42866984 -0.0059805582 1709840
1.796 -0.41907743 -0.1569882 526853
1.7410001 -0.45127895 -0.014194361 2564118
1.675 -0.44771129 -0.10306292 1447171
1.614 -0.44706285 -0.073203325 1840913
1.6569999 -0.45093676 -0.0054689762 2302480
1.59 -0.44812679 -0.12355092 659460
2.454 -0.17984042 -0.14305624 1577478
1.7359999 -0.43314323 -0.070312783 2496523
1.717 -0.44228211 -0.055657096 1907209
2.473 -0.33716008 -0.25216514 1840137
2.4630001 -0.22828358 -0.2750487 1379586
1.7460001 -0.42999274 -0.1272005 723974
2.575 -0.16372962 -0.18759523 329729
1.918 -0.3824268 -0.1304241 1049088
2.6300001 -0.15872283 -0.16182417 592129
2.513 -0.19228981 -0.17494889 328704
2.483 -0.32648054 -0.24916859 1642758
2.425 -0.17379463 -0.12567605 2299144
2.5650001 -0.17138752 -0.16612242 526336
2.4630001 -0.33181474 -0.16748413 787712
2.5650001 -0.16724065 -0.19931328 263424
1.6059999 -0.44744337 -0.010496021 1908238
2.5439999 -0.17409727 -0.2635197 2235398
2.483 -0.31443763 -0.25720105 1577217
1.64 -0.44896179 -0.00010750609 2366994
2.4630001 -0.25615737 -0.27106485 1444866
2.733 -0.13842809 -0.19026475 263936
1.9349999 -0.37955973 -0.1315801 1049857
1.636 -0.44257686 -0.16152608 266244
2.454 -0.35043934 -0.17481077 328704
1.619 -0.43797797 -0.17817864 527874
2.3610001 -0.27608564 -0.14527257 2233864
2.6860001 -0.149075 -0.19133729 329729
1.775 -0.44861332 -0.00011635568 2301715
2.266 -0.35290012 -0.1504229 395008
1.631 -0.44122425 -0.055507503 1775372
2.483 -0.35056636 -0.18490903 66048
2.473 -0.20921977 -0.21616471 394752
1.712 -0.42161945 -0.18564458 461312
1.55 -0.441865 -0.17309196 789506
1.8380001 -0.402134 -0.20822652 396803
2.454 -0.2909281 -0.24228914 1381127
1.781 -0.40693924 -0.19312675 2048
2.388 -0.36417863 -0.16238414 460800
1.6799999 -0.44361559 -0.11695747 1380614
1.947 -0.38820907 -0.1386946 591875
1.61 -0.44595489 -0.026147099 2235922
1.61 -0.44335198 -0.052188657 1776136
2.2260001 -0.39705393 -0.23778081 462081
1.7359999 -0.43033662 -0.064696863 2824199
2.641 -0.14657748 -0.26929566 723713
2.5439999 -0.17409727 -0.2676346 2038017
1.9 -0.40648362 -0.20295756 592897
2.05 -0.41206032 -0.22561222 658432
1.6059999 -0.4500398 -0.078035854 1315599
2.503 -0.19557127 -0.18639843 460289
1.707 -0.42590755 -0.17129713 592386
2.425 -0.1698741 -0.13352086 2825999
2.2579999 -0.39181018 -0.22658989 461568
1.698 -0.44562343 -0.071520172 2102797
2.3080001 -0.22511151 -0.13454515 1971210
1.631 -0.45440856 -0.11090809 987396
1.775 -0.44287398 -0.020213645 2563858
2.4630001 -0.20439179 -0.28301647 2304
1.623 -0.44693184 0.0077691581 2301201
2.513 -0.13541058 -0.10991292 723972
1.598 -0.45296505 -0.10607934 1117954
1.6059999 -0.4500398 -0.11959883 791044
2.473 -0.19722536 -0.25216514 854529
2.3610001 -0.2799027 -0.14527257 2168841
1.623 -0.44955575 -0.11823964 922115
2.675 -0.1484645 -0.22949474 263424
1.636 -0.45051169 -0.12712535 987396
1.636 -0.44257686 -0.15623367 266244
1.7029999 -0.44968891 -0.038675789 2104847
2.098 -0.41153297 -0.2173209 592897
2.434 -0.2295308 -0.22062966 526593
1.7029999 -0.45519543 -0.013884547 2564112
2.473 -0.34515634 -0.2481651 986115
1.689 -0.45145336 -0.035625905 1973004
2.325 -0.37712404 -0.26339862 526593
2.71 -0.13726313 -0.21934728 460802
2.503 -0.20366454 -0.18234986 394496
2.388 -0.34101433 -0.15852156 788736
1.755 -0.42653453 -0.11934009 1313281
2.3970001 -0.37330168 -0.24829274 395522
2.21 -0.28343889 -0.12525758 1835776
2.5969999 -0.16512847 -0.17659613 460800
1.7410001 -0.42876136 -0.073331349 2889225
2.652 -0.13003787 -0.14172994 788738
2.618 -0.1706963 -0.14838205 1248512
1.796 -0.41327021 -0.17441826 658179
2.4630001 -0.28403112 -0.19138737 328704
2.6300001 -0.15872283 -0.29795197 1708549
1.6619999 -0.45229745 0.0052675824 2235155
1.698 -0.4346427 -0.15391502 723974
2.473 -0.20522164 -0.23616496 2367243
1.717 -0.43117851 -0.13619669 593415
1.671 -0.4250299 -0.18119866 461313
2.043 -0.41065329 -0.1851875 593669
2.017 -0.41194898 -0.18935569 790278
1.722 -0.43243411 -0.075316377 2299406
1.64 -0.44100755 -0.16987906 330496
1.619 -0.44583035 -0.062955245 2104072
2.325 -0.38088292 -0.19194606 395008
1.6440001 -0.44474107 -0.14636105 723715
2.618 -0.14953351 -0.27541956 789504
1.801 -0.44644946 0.0086212279 2171157
2.473 -0.30517501 -0.17616422 328704
2.586 -0.16024822 -0.25950462 1906180
2.434 -0.25707638 -0.23244056 1248258
1.77 -0.43590328 -0.034471475 2955785
2.444 -0.23837632 -0.15828586 525568
2.5439999 -0.1411939 -0.11949857 657922
1.61 -0.44074908 -0.0495845 1842697
1.806 -0.43017018 -0.0088819386 1971985
2.71 -0.12850054 -0.22811408 395009
2.493 -0.32376492 -0.20581572 328704
1.717 -0.4478339 -0.033439279 2432526
2.503 -0.33315688 -0.28356418 2102018
1.717 -0.43395442 -0.075097688 2102797
2.415 -0.37610495 -0.20718871 395008
2.473 -0.2132179 -0.21616471 460544
1.906 -0.38619706 -0.12960811 1179648
1.698 -0.45385897 -0.019336773 2498319
1.64 -0.43570474 -0.17518443 462083
2.4630001 -0.299959 -0.16748413 525568
1.5779999 -0.44984707 -0.11240888 724737
2.3169999 -0.38331828 -0.2475014 526853
2.473 -0.30517501 -0.25616521 1380097
1.619 -0.44844779 -0.013199696 2039824
1.9910001 -0.38410664 -0.14182894 460544
2.6300001 -0.14596696 -0.13204621 854531
2.483 -0.21809439 -0.16482791 329216
2.675 -0.13116565 -0.24247508 592129
2.523 -0.17673911 -0.20421152 263424
1.726 -0.43064818 -0.11178453 1445128
1.849 -0.40752998 -0.17358387 854529
2.3080001 -0.31466457 -0.14201148 1247745
2.4630001 -0.22031966 -0.15951639 329216
2.483 -0.19400857 -0.25318483 789506
2.483 -0.31845194 -0.20900637 328704
2.3169999 -0.30839974 -0.13881752 1181696
2.3429999 -0.38004372 -0.20101164 329729
1.698 -0.44013306 -0.079759657 1708813
2.434 -0.3711938 -0.20881876 526593
1.966 -0.40471128 -0.15594798 658179
2.415 -0.37220058 -0.21109493 395008
2.533 -0.1856299 -0.17634124 328704
2.493 -0.20285086 -0.16145934 591360
2.483 -0.34253773 -0.22507125 66304
2.1489999 -0.40416527 -0.20522381 921090
2.454 -0.34250453 -0.2819823 1379840
2.444 -0.25023007 -0.18200469 328704
1.9910001 -0.40985766 -0.18691482 790278
1.717 -0.43395442 -0.10564718 1708039
1.7309999 -0.4318957 -0.095309116 1905152
2.4630001 -0.35968852 -0.2312261 67072
2.533 -0.17334449 -0.19272962 328704
1.888 -0.41002107 -0.17724518 855299
2.0769999 -0.39398205 -0.15803373 395520
2.473 -0.26119551 -0.28416553 788736
2.483 -0.18999428 -0.23711993 2367243
2.1270001 -0.33125266 -0.12399373 1836032
2.4059999 -0.36692369 -0.25700837 395267
2.3080001 -0.38556072 -0.22040789 395522
1.684 -0.43922672 -0.11178824 1118724
2.5439999 -0.16998434 -0.24706015 2563080
2.434 -0.3711938 -0.19700786 395009
1.671 -0.44934368 -0.094708331 1316103
2.05 -0.41206032 -0.21566468 724226
1.59 -0.44298565 -0.028394096 2104590
1.6799999 -0.42460302 -0.19032674 591875
1.684 -0.44467181 -0.08727359 1250570
1.574 -0.44616207 -0.023016516 2104336
1.796 -0.43359554 -0.011737767 2365717
1.671 -0.4520452 -0.094708331 1316103
1.7410001 -0.42876136 -0.076147392 2888973
2.483 -0.20203719 -0.20900637 526082
2.4630001 -0.19642785 -0.26309711 657920
2.675 -0.14413978 -0.22949474 329216
2.0910001 -0.33916834 -0.12865944 1114624
1.7410001 -0.41750255 -0.20005345 133120
2.473 -0.28918245 -0.20016453 393984
1.7359999 -0.44998294 -0.019769516 2432787
1.77 -0.42159536 -0.16044146 199424
1.755 -0.42085984 -0.18179131 329728
1.631 -0.45440856 -0.097717471 1053191
2.325 -0.37712404 -0.16186079 395009
1.8940001 -0.40826204 -0.1563638 921092
1.726 -0.43064818 -0.12295166 1117450
2.434 -0.24133605 -0.18913393 262912
2.2260001 -0.39345512 -0.21617764 724224
2.444 -0.25418133 -0.18595783 459520
2.4630001 -0.35570654 -0.24317773 198912
1.726 -0.4446004 -0.030822774 2235922
1.717 -0.43117851 -0.127865 659209
2.434 -0.26494655 -0.21275572 460289
1.786 -0.4369562 -0.014561246 2890262
2.415 -0.37220058 -0.22671987 592386
2.483 -0.33450913 -0.27326593 2299398
1.966 -0.4110682 -0.17184789 790025
2.493 -0.18672898 -0.2340425 1907211
1.717 -0.43395442 -0.13897391 723972
2.483 -0.33450913 -0.27728215 2299398
2.454 -0.31076518 -0.16687213 459776
1.631 -0.44649798 -0.14520369 854272
2.21 -0.39777294 -0.20032521 790278
2.4630001 -0.2760672 -0.2750487 263424
1.77 -0.42159536 -0.15471554 592388
1.666 -0.43991879 -0.13754071 1248262
1.9349999 -0.41084313 -0.19730674 855299
1.817 -0.44160298 0.014575771 2039575
2.444 -0.25023007 -0.15433271 1051648
2.483 -0.29838043 -0.18089281 262912
2.444 -0.35296258 -0.26502067 789254
1.8710001 -0.40330428 -0.2028861 462081
1.7410001 -0.42876136 -0.090227626 2429701
2.618 -0.12837072 -0.30082709 658181
2.473 -0.33316195 -0.17216419 525568
2.388 -0.36803934 -0.17010926 460800
1.712 -0.42992288 -0.14410749 723974
1.684 -0.43922672 -0.13902675 1248776
1.689 -0.44053084 -0.1230479 1052680
1.751 -0.4567019 0.0055496609 2694934
1.791 -0.4468661 0.0085733589 2302229
1.627 -0.44014215 -0.17379576 462594
1.6059999 -0.43965405 -0.18454099 1051910
2.641 -0.12522876 -0.14541386 657922
2.0699999 -0.40938723 -0.20437592 921351
1.693 -0.43062574 -0.16167702 396803
2.483 -0.34253773 -0.18490903 131840
1.712 -0.43822634 -0.069340721 2300173
2.493 -0.32376492 -0.20178331 262912
2.6860001 -0.149075 -0.16961443 395008
2.493 -0.2109118 -0.16952413 263424
2.454 -0.21554717 -0.24625845 985856
1.775 -0.44000432 -0.020213645 2826001
2.098 -0.39118177 -0.15623808 395520
1.671 -0.43583602 -0.15417044 592899
2.425 -0.32669538 -0.1531329 1380099
2.425 -0.24044368 -0.19627941 459776
1.64 -0.44631037 -0.063771836 1907207
1.6440001 -0.45271468 -0.11445124 790016
1.6059999 -0.44484693 -0.14817338 723972
2.1789999 -0.39923894 -0.17284366 460802
2.5969999 -0.16092987 -0.20600046 67072
1.796 -0.43359554 -0.0088327583 2104085
2.6300001 -0.13746305 -0.28944397 723715
2.444 -0.23837632 -0.24525495 1774083
2.618 -0.12837072 -0.26271582 592386
2.2179999 -0.39204109 -0.22257589 526848
2.388 -0.36803934 -0.26281074 461060
2.454 -0.26712358 -0.18274939 525313
2.6300001 -0.13321109 -0.26817402 526593
2.454 -0.27109101 -0.26213571 1052160
1.8380001 -0.40807703 -0.19038884 396803
2.164 -0.39299208 -0.16465335 460802
1.649 -0.44875965 -0.12813552 1052676
1.631 -0.44122425 -0.05286938 2038543
2.473 -0.28118619 -0.18416433 328704
2.415 -0.37220058 -0.24234481 395520
2.3080001 -0.21764876 -0.13827831 1839371
2.4059999 -0.35914406 -0.27257508 461315
2.5439999 -0.14941974 -0.12361346 854018
2.4630001 -0.23624752 -0.25911322 1445377
1.649 -0.45409155 -0.10946485 1053188
1.775 -0.45435265 0.0056257271 2564118
1.817 -0.41222727 -0.13531201 920576
2.473 -0.22521231 -0.18016428 329217
2.454 -0.23538426 -0.16687213 263424
2.234 -0.39848089 -0.25308925 527104
2.454 -0.24331909 -0.17084146 394496
2.3789999 -0.36665225 -0.26566824 329474
2.473 -0.32916382 -0.25616521 2233864
1.7029999 -0.43867585 -0.082749106 1840399
2.473 -0.32116753 -0.17616422 262912
2.6860001 -0.149075 -0.18264815 329728
1.7410001 -0.42594665 -0.15499671 330497
1.717 -0.43395442 -0.10842441 1576712
1.726 -0.44739085 -0.030822774 2432787
2.3610001 -0.34479275 -0.15672924 592128
2.1270001 -0.33125266 -0.12743413 1312000
2.503 -0.18747801 -0.19449557 328704
2.533 -0.17334449 -0.15175866 657408
2.0840001 -0.31781751 -0.12148704 1770240
1.675 -0.42333934 -0.19246958 526595
1.717 -0.43395442 -0.069543235 2234634
1.6619999 -0.44961047 0.0052675824 2104337
1.751 -0.42839321 -0.0935781 2428674
1.786 -0.41674402 -0.15900293 396036
2.608 -0.12366399 -0.27858597 854529
1.9119999 -0.40905091 -0.19496149 789506
2.503 -0.17938472 -0.25522417 1512712
2.454 -0.2909281 -0.24625845 1775371
2.493 -0.19478993 -0.19371852 525568
2.733 -0.13400961 -0.18584415 263936
2.434 -0.24920622 -0.22850358 985088
2.5650001 -0.1589469 -0.1287827 788480
1.8710001 -0.40935403 -0.17564923 855299
1.693 -0.44157413 -0.087740019 1381643
2.1129999 -0.40764305 -0.20862141 724226
1.791 -0.43528396 -0.020395853 3937811
2.4059999 -0.35914406 -0.16360813 526593
1.8329999 -0.41882068 0.014704121 2171161
2.3 -0.3842243 -0.22708435 330497
1.684 -0.43378162 -0.14992215 658694
2.434 -0.26494655 -0.23244056 1116672
1.653 -0.43648607 -0.17122567 526593
1.7460001 -0.42152438 -0.17238665 592386
2.2260001 -0.39345512 -0.17297129 328704
1.6440001 -0.44474107 -0.021380972 2236176
1.707 -0.42038807 -0.19338556 657920
2.1789999 -0.24071203 -0.11997607 1638656
1.791 -0.43528396 -0.017498933 3479060
2.4630001 -0.20439179 -0.25512934 1315333
1.7309999 -0.4318957 -0.10370874 1773829
2.105 -0.41290605 -0.24187967 658179
1.717 -0.43117851 -0.12231055 1183243
1.8279999 -0.40881217 -0.17456916 789506
2.425 -0.23652315 -0.21196903 722945
2.0840001 -0.40541756 -0.18890394 921864
2.434 -0.23740096 -0.22850358 1050880
1.671 -0.44123909 -0.12984502 1315082
2.171 -0.40128309 -0.22488259 724226
1.562 -0.44528589 -0.035473622 1710606
2.1340001 -0.21159044 -0.11404664 1770496
2.444 -0.25418133 -0.15828586 525568
2.513 -0.31823671 -0.28876182 1709060
1.765 -0.42325792 -0.16569796 198912
1.627 -0.44803333 -0.13695262 1314053
2.473 -0.34115821 -0.25216514 1643016
1.812 -0.4345288 0.0028121073 1842704
1.59 -0.44812679 -0.12097912 659458
1.602 -0.44632894 -0.015652312 2104849
2.493 -0.35600868 -0.21388051 328704
2.415 -0.37220058 -0.19937624 460802
1.726 -0.45297176 -0.0084884968 2957336
2.1340001 -0.11498852 -0.076077722 1379844
1.6569999 -0.45093676 -0.0027887984 2301969
2.641 -0.15511696 -0.19667529 132864
2.618 -0.12413816 -0.12720914 985604
2.434 -0.3711938 -0.22456662 460802
2.454 -0.26315618 -0.17481077 459776
1.717 -0.43395442 -0.13064224 593929
2.454 -0.22348201 -0.26213571 1445890
2.415 -0.31753945 -0.15250143 1512199
1.883 -0.40589094 -0.19200444 724226
1.586 -0.44956356 -0.13606678 1117444
2.194 -0.40553436 -0.25210643 724226
1.574 -0.44361734 -0.1757721 789506
1.918 -0.40723369 -0.21728969 527104
1.775 -0.45148298 -0.00011635568 2235922
1.693 -0.44704834 -0.049402315 2039048
2.454 -0.34250453 -0.27801299 1642497
2.503 -0.18343136 -0.25522417 1052676
1.623 -0.44955575 0.0051439749 2300433
2.171 -0.40479296 -0.22137102 658432
2.023 -0.41317442 -0.20627986 789506
1.806 -0.40973169 -0.18123177 592386
2.444 -0.28974256 -0.22548924 198144
2.493 -0.35600868 -0.21791291 197120
2.4630001 -0.2880131 -0.26708096 1183748
2.533 -0.17334449 -0.21731222 329216
2.3699999 -0.36526516 -0.16116013 395008
2.733 -0.14284658 -0.18584415 329728
1.77 -0.4130106 -0.18048213 263424
2.641 -0.12522876 -0.14114207 919811
1.8279999 -0.41472286 -0.15682855 527622
1.653 -0.4498482 -0.0081294822 2236687
2.425 -0.24044368 -0.20804663 657154
1.755 -0.44072118 -0.028501961 2170129
1.6440001 -0.44739893 -0.071904831 1644299
1.712 -0.44376197 -0.0471876 2301451
1.594 -0.45183122 -0.082609326 1381904
2.483 -0.29035181 -0.18089281 262912
1.781 -0.45300913 0.014286983 2629911
1.822 -0.40157902 0.01461588 2366739
2.3970001 -0.3694264 -0.25604698 329474
2.0699999 -0.34245527 -0.12401911 1836034
2.434 -0.3711938 -0.18913393 329216
2.0039999 -0.38985452 -0.14599645 592388
2.4630001 -0.2880131 -0.15951639 1116672
1.59 -0.44555622 -0.1544126 592901
2.483 -0.30640903 -0.18892525 328704
2.434 -0.2295308 -0.18913393 394497
2.2019999 -0.39989305 -0.21384688 1052161
1.6619999 -0.45229745 -0.11032782 1052929
1.574 -0.44616207 -0.16049653 658179
1.671 -0.4520452 -0.083897039 1382156
2.05 -0.40543181 -0.16924277 723713
2.483 -0.21006578 -0.19695769 328704
1.602 -0.44373897 -0.059702985 1971975
1.7410001 -0.43157607 -0.056435063 2693126
2.618 -0.1706963 -0.15685122 723200
1.6440001 -0.45005682 -0.093178034 1185287
2.473 -0.34115821 -0.2321649 131840
1.6569999 -0.44825786 -0.0027887984 2170129
1.8940001 -0.4052 -0.20844369 462083
2.483 -0.19400857 -0.23310371 1709830
1.929 -0.36590824 -0.12805197 984064
1.781 -0.41269797 -0.18160377 460800
1.801 -0.42315581 -0.14868596 723713
1.693 -0.45252252 0.013581057 2301967
2.194 -0.40553436 -0.24855766 658433
2.483 -0.20605148 -0.20900637 526082
2.325 -0.38088292 -0.22579201 329728
1.801 -0.42315581 -0.13703358 657920
2.473 -0.30917314 -0.20816462 262912
1.941 -0.40897903 -0.17908128 724485
1.972 -0.37725297 -0.1340961 918784
2.454 -0.36630902 -0.23038119 329474
2.454 -0.23935167 -0.17878008 394497
2.0639999 -0.40820059 -0.19042954 791048
1.6440001 -0.44739893 -0.026699273 2104337
2.483 -0.31845194 -0.25720105 1643010
2.503 -0.11868519 -0.10947555 461829
2.434 -0.25707638 -0.18913393 459520
1.7309999 -0.4318957 -0.10090886 1905667
2.523 -0.17266014 -0.19604968 328704
2.325 -0.38464177 -0.18066409 329216
1.96 -0.38763237 -0.13962066 526595
2.483 -0.19400857 -0.24515237 1709314
2.164 -0.40348777 -0.17515408 395009
1.883 -0.40589094 -0.14631848 985858
1.812 -0.40816343 -0.12907788 722688
1.712 -0.45760104 -0.0056505054 2366481
2.721 -0.14221936 -0.16742341 263936
2.3699999 -0.37676001 -0.21099494 329729
2.425 -0.16595356 -0.13352086 2695183
2.3429999 -0.38004372 -0.17827301 460800
2.493 -0.20285086 -0.19371852 328704
1.722 -0.4352181 -0.097598895 1839874
2.425 -0.36590073 -0.25511554 658694
2.415 -0.36829621 -0.17593883 460800
2.0569999 -0.41679296 -0.23636413 592640
2.473 -0.36114889 -0.19616447 329217
1.675 -0.44771129 -0.12202797 1183237
1.806 -0.41265148 -0.16078348 462342
2.1789999 -0.4062846 -0.23980929 592899
2.325 -0.2380462 -0.13929683 2037514
2.434 -0.26101145 -0.22456662 395010
2.352 -0.38150355 -0.23221844 461313
1.765 -0.42611143 -0.13143957 723972
1.574 -0.44616207 -0.16813432 789504
2.5539999 -0.17065252 -0.18606533 395009
1.786 -0.448506 0.0027717571 2302228
1.7029999 -0.42766279 -0.1598774 396549
1.649 -0.44342771 -0.050785616 2170383
2.434 -0.23346588 -0.19700786 328704
1.6569999 -0.42950559 -0.17164001 592129
2.444 -0.22652256 -0.18991098 394497
1.7029999 -0.45244217 -0.011129965 2563347
2.608 -0.16161151 -0.2912412 2037768
1.712 -0.45760104 -0.0028813656 2300946
2.1340001 -0.20124024 -0.11749836 1641218
1.619 -0.44844779 -0.010580983 1842445
2.194 -0.40198728 -0.23436257 592899
1.689 -0.43233895 -0.16402696 396290
1.806 -0.41849104 -0.15494111 396036
2.652 -0.1343254 -0.30473393 658181
1.614 -0.44445348 -0.054928944 1775623
1.6059999 -0.44484693 -0.020886766 2433302
2.493 -0.19478993 -0.20984812 526082
2.454 -0.24331909 -0.26610503 2036225
2.3080001 -0.38556072 -0.21294157 263936
1.8940001 -0.41132411 -0.1563638 921092
2.25 -0.39405963 -0.20759034 263936
1.801 -0.45227286 0.014447421 2499097
1.675 -0.42604733 -0.17892312 526593
1.594 -0.45440826 0.0024737853 2433301
2.325 -0.2380462 -0.13553616 1773829
2.473 -0.20921977 -0.23616496 2235658
2.513 -0.32636231 -0.28469709 1905152
1.5700001 -0.44756648 -0.030576395 1973263
2.5650001 -0.16724065 -0.24495071 2300427
2.454 -0.23141684 -0.24228914 2300938
1.722 -0.44913802 -0.027966028 2366481
2.388 -0.27152148 -0.14693388 2364421
1.849 -0.40752998 -0.1765746 854529
2.483 -0.21408008 -0.19294147 262912
2.3169999 -0.38331828 -0.2624923 460544
1.8279999 -0.41472286 -0.15387179 724485
1.7410001 -0.42031726 -0.18034112 329728
1.684 -0.45283946 0.0026134597 2038544
2.473 -0.28918245 -0.19216442 459520
2.4630001 -0.28403112 -0.27106485 592129
1.689 -0.44053084 -0.12577984 987146
1.689 -0.42687768 -0.1804186 592386
2.3789999 -0.18972872 -0.14253211 1509890
1.9910001 -0.40985766 -0.19335565 855299
2.454 -0.28696069 -0.2105346 262912
2.454 -0.35043934 -0.17084146 394752
1.781 -0.44149166 -0.0087589882 2301199
1.918 -0.40723369 -0.21108501 592897
1.684 -0.43922672 -0.10906439 1118724
2.266 -0.39319834 -0.16874903 591361
2.641 -0.15938669 -0.14968564 133120
1.649 -0.45142561 -0.10946485 987395
1.614 -0.44967222 -0.086256452 1119241
2.0039999 -0.39309442 -0.1492379 658181
1.712 -0.45483324 -0.0056505054 2498067
2.3169999 -0.35335085 -0.15006068 592128
2.194 -0.29557514 -0.12435073 1966592
1.59 -0.45069739 -0.12097912 593665
2.608 -0.15317872 -0.25327551 920576
1.812 -0.41402239 -0.15838677 396550
1.7309999 -0.4318957 -0.098108992 1970945
2.473 -0.26519364 -0.28416553 592129
2.3340001 -0.28802201 -0.14361125 1971462
2.2260001 -0.36106586 -0.14416707 460289
2.513 -0.18416421 -0.19933738 394496
1.698 -0.44013306 -0.087999143 1446666
1.5700001 -0.44248998 -0.18040432 724226
2.415 -0.36048749 -0.26187599 527108
1.8940001 -0.4052 -0.21150722 396290
1.653 -0.43381363 -0.16855195 592640
1.6619999 -0.44961047 -0.075380377 1512713
2.483 -0.34253773 -0.18089281 328704
2.444 -0.28184006 -0.22944239 591360
1.671 -0.4520452 -0.086599864 1382156
1.8710001 -0.40632915 -0.2028861 396803
1.717 -0.4395062 -0.058434322 1907211
1.755 -0.41518518 -0.19314608 133632
1.698 -0.4346427 -0.12370358 789767
2.2909999 -0.13826388 -0.10020314 1247488
2.575 -0.17205569 -0.15010995 986112
2.425 -0.25612581 -0.20412421 459776
2.4630001 -0.21235572 -0.23919386 2366730
2.444 -0.25418133 -0.24130182 2234632
2.4630001 -0.27208522 -0.17943576 459776
2.1559999 -0.36365414 -0.13963351 591361
2.4630001 -0.31190491 -0.24317773 1052162
1.698 -0.43738788 -0.10447811 1512200
2.493 -0.19478993 -0.20581572 526082
1.6440001 -0.45005682 -0.10115549 791044
1.7309999 -0.4318957 -0.086909503 2233355
1.689 -0.4378002 -0.10119241 1381896
1.883 -0.40893522 -0.14936422 1183237
2.3169999 -0.31214565 -0.13881752 1181696
2.454 -0.22348201 -0.20656529 394496
2.503 -0.18343136 -0.21878701 395009
2.454 -0.21554717 -0.2343505 1841416
2.415 -0.37610495 -0.22671987 526593
2.513 -0.18010141 -0.20340212 328704
2.4630001 -0.30792293 -0.22724223 1024
1.6619999 -0.43886256 -0.14527528 855047
2.3169999 -0.24097304 -0.1350698 1904901
2.5539999 -0.13761982 -0.11583723 658181
1.801 -0.42897925 -0.014683541 3216657
1.76 -0.43913138 -0.031429943 2366992
2.503 -0.33720353 -0.19854414 328704
2.473 -0.33716008 -0.23616496 262912
2.493 -0.33182588 -0.20984812 262912
2.608 -0.15317872 -0.26171231 854528
2.473 -0.22521231 -0.17616422 395010
2.444 -0.26208383 -0.15828586 722688
2.71 -0.13726313 -0.15797979 198912
2.473 -0.30917314 -0.18416433 328704
2.187 -0.12491588 -0.074429743 1641216
2.4059999 -0.36692369 -0.17139149 395008
2.454 -0.23141684 -0.15496418 853504
2.4630001 -0.21235572 -0.27903259 396036
2.3429999 -0.37246779 -0.16311391 395008
1.7029999 -0.43592256 -0.077239938 2103058
2.105 -0.37206784 -0.14314011 853504
2.1340001 -0.20124024 -0.11404664 1574144
1.8380001 -0.40807703 -0.13687587 920064
2.454 -0.26712358 -0.16687213 525568
2.4630001 -0.299959 -0.22325836 66560
2.6300001 -0.12895913 -0.12779222 854531
1.717 -0.4284026 -0.16119173 396549
1.726 -0.42506728 -0.15924487 330243
2.5439999 -0.17821018 -0.17710702 394496
2.2420001 -0.39990786 -0.19597302 264451
2.425 -0.25220528 -0.22373626 460289
2.575 -0.16372962 -0.19176027 329729
1.627 -0.45066372 -0.084319554 1381902
2.473 -0.32916382 -0.25216514 1971721
2.1199999 -0.41242096 -0.21959977 527104
1.7359999 -0.45559615 -0.00011379913 2826520
2.2179999 -0.20198984 -0.12571099 1971211
1.5700001 -0.44248998 -0.0534315 1907211
1.77 -0.41873378 -0.16616736 198912
2.503 -0.31292373 -0.27951559 1578246
1.7410001 -0.45690838 0.01115006 2498580
1.786 -0.4369562 -0.0087835779 2038292
2.4630001 -0.34774262 -0.25114548 1117955
2.3789999 -0.37819073 -0.2156442 460802
1.5700001 -0.44248998 -0.04073422 1777165
1.566 -0.44642618 -0.14701587 723715
1.796 -0.41617382 -0.16279823 264963
2.5439999 -0.16998434 -0.20591126 263424
1.786 -0.448506 0.0056605907 2433814
2.6860001 -0.12736253 -0.23478302 395008
2.6630001 -0.13488255 -0.25000209 460800
1.689 -0.4378002 -0.11212015 1184262
1.7460001 -0.44692943 -0.022707529 2104847
1.7410001 -0.42876136 -0.09304367 2167041
2.523 -0.17266014 -0.20829244 263424
2.641 -0.14657748 -0.29065457 789506
1.941 -0.40897903 -0.17594174 724487
1.689 -0.42414707 -0.19134635 592129
1.8660001 -0.40222651 -0.1359428 854529
1.751 -0.44254756 -0.028437 1973263
2.2179999 -0.40279871 -0.25486419 658944
1.8329999 -0.40400347 -0.21062492 396288
1.7460001 -0.44975221 -0.0085868575 2301716
1.796 -0.41907743 -0.13084312 854529
1.671 -0.44934368 -0.089302689 1316363
2.3699999 -0.37292838 -0.17266047 592386
1.675 -0.43417132 -0.1491209 855560
1.76 -0.45335847 -0.00011537239 2563605
2.3699999 -0.37292838 -0.26082975 396037
2.652 -0.15576303 -0.30473393 1182720
1.684 -0.44194928 -0.10634054 1118981
1.582 -0.44331443 -0.04360443 1579782
2.194 -0.38425192 -0.1527409 722432
1.614 -0.45228159 -0.099309586 921351
1.631 -0.4438611 -0.14520369 788738
1.726 -0.45018131 -0.019655636 2563858
2.434 -0.3711938 -0.23637752 395008
2.017 -0.41194898 -0.17956826 856073
2.0639999 -0.4115375 -0.18041407 724485
1.712 -0.45206541 -0.030572763 2563345
2.105 -0.41290605 -0.22485562 592897
1.9910001 -0.37123114 -0.13860853 657152
2.454 -0.27902585 -0.25022778 1775371
2.434 -0.22559571 -0.20094483 328704
2.533 -0.17743963 -0.14766155 1051904
2.586 -0.16442905 -0.2553218 2629645
1.689 -0.44599211 -0.065677218 2168587
1.598 -0.44263101 -0.16035901 199940
2.586 -0.16024822 -0.21767639 263681
1.5779999 -0.4472959 -0.14814243 723715
2.454 -0.32266742 -0.16687213 590848
1.8660001 -0.40524331 -0.20536216 396803
1.675 -0.4450033 -0.059714239 2169615
2.473 -0.29717875 -0.27216539 854784
2.3610001 -0.37532926 -0.18346147 395008
1.7309999 -0.42070156 -0.19330464 460800
2.023 -0.40990379 -0.22591293 658432
2.1789999 -0.30764562 -0.12350057 2294016
2.194 -0.23882198 -0.12435073 1639936
2.3789999 -0.38203689 -0.2194922 329216
2.434 -0.27281672 -0.22850358 722434
1.941 -0.40897903 -0.1665231 921866
2.4059999 -0.18410239 -0.14414975 1181952
2.608 -0.1658279 -0.1604705 788225
2.454 -0.35440677 -0.17481077 329216
2.483 -0.31845194 -0.19294147 328704
2.03 -0.1651774 -0.1084886 1444097
2.3169999 -0.24471897 -0.13881752 2103048
1.586 -0.44699943 -0.15915482 723972
2.5539999 -0.16239434 -0.23150705 526083
2.5539999 -0.16239434 -0.23563811 1249291
2.523 -0.17266014 -0.2001306 328704
1.8329999 -0.40696692 -0.19580063 200192
1.929 -0.4095692 -0.2029352 658690
2.3080001 -0.38556072 -0.2092084 263936
1.822 -0.41336164 -0.14452554 986369
1.96 -0.40981367 -0.16498287 987659
2.503 -0.34934345 -0.20664129 262912
2.473 -0.30917314 -0.25216514 1709832
1.8710001 -0.39725453 -0.13328074 919811
1.855 -0.40285441 -0.13214098 985088
2.503 -0.18343136 -0.25927272 1381894
1.653 -0.42846876 -0.17389937 592386
1.671 -0.43583602 -0.15687326 462083
2.194 -0.29557514 -0.12789951 1443072
2.194 -0.23882198 -0.12080197 1638656
1.717 -0.43117851 -0.11397886 1379848
2.234 -0.39848089 -0.19166027 329474
1.666 -0.45069256 -0.10520388 1380865
2.483 -0.31042331 -0.19294147 393728
2.454 -0.25125393 -0.17084146 394496
2.352 -0.38150355 -0.2284141 329728
1.675 -0.44771129 -0.046167776 1777165
2.388 -0.36803934 -0.1662467 395008
1.722 -0.42686617 -0.16723175 396549
2.3 -0.25036034 -0.13779901 2364937
1.614 -0.44445348 -0.044486441 1711623
1.6799999 -0.44633168 -0.11967485 1249030
2.652 -0.1514755 -0.21894234 198144
2.352 -0.37389854 -0.25884876 592901
2.473 -0.31317127 -0.21216467 262912
2.454 -0.21554717 -0.27007434 657154
2.513 -0.16385019 -0.12617192 1182720
1.6569999 -0.43754229 -0.15823911 462596
1.7460001 -0.43846107 -0.042476468 3021838
2.483 -0.35859495 -0.22507125 1281
2.2019999 -0.14001267 -0.092748776 2230530
2.043 -0.41065329 -0.17857845 790278
2.4630001 -0.26810327 -0.17943576 459776
2.6300001 -0.13321109 -0.28518999 723715
2.483 -0.31845194 -0.25318483 1905928
2.3610001 -0.37914634 -0.24074481 395520
2.234 -0.39486915 -0.18804681 329729
1.822 -0.43398121 0.01461588 2302229
1.77 -0.43304169 -0.031608522 3545355
2.523 -0.17673911 -0.25318259 1577474
1.812 -0.42574033 -0.0030496696 1579024
2.444 -0.34901133 -0.27292693 986115
2.4630001 -0.19642785 -0.2750487 133120
2.454 -0.25522134 -0.25419709 1248000
1.698 -0.4346427 -0.11821058 1249289
2.5539999 -0.16652344 -0.23150705 525315
1.6569999 -0.44825786 -0.13411751 1248260
1.7029999 -0.43867585 -0.077239938 2103058
2.4059999 -0.36303386 -0.2686834 395522
1.586 -0.44699943 -0.071933381 1841167
1.8329999 -0.40993035 -0.1453981 1182465
1.6799999 -0.4300352 -0.17130508 592129
2.483 -0.31443763 -0.26121727 1182464
1.707 -0.42314783 -0.19338556 657920
2.454 -0.27505842 -0.18671872 459520
1.712 -0.45483324 -0.00011222588 2629398
2.454 -0.23538426 -0.17878008 263424
2.503 -0.35339007 -0.20259272 262912
2.4630001 -0.22430162 -0.18341963 329217
1.698 -0.44287825 -0.066027187 2300173
2.2260001 -0.39705393 -0.24858239 396288
2.473 -0.3171694 -0.18016428 262912
1.666 -0.45338604 0.0079749953 2366992
1.997 -0.41432136 -0.20039858 855299
2.454 -0.25522134 -0.17878008 459776
2.721 -0.13782029 -0.17182459 460800
1.55 -0.441865 -0.17559907 724226
1.7410001 -0.42876136 -0.13528438 527876
1.666 -0.42375812 -0.18874067 592388
1.947 -0.40709552 -0.15129161 592386
2.473 -0.32916382 -0.240165 656640
1.689 -0.4378002 -0.11485209 1249287
2.4630001 -0.21235572 -0.22325836 395009
1.7309999 -0.4318957 -0.084109634 2233100
2.473 -0.29318058 -0.20016453 328192
2.6630001 -0.14779849 -0.24138734 329474
2.234 -0.39125741 -0.2350219 462081
2.586 -0.16442905 -0.25950462 2235144
2.473 -0.20122349 -0.23616496 2433036
2.1489999 -0.24782091 -0.12180024 1705216
1.59 -0.45326796 -0.00010422847 2170389
1.781 -0.40693924 -0.19600751 68608
1.806 -0.43892953 0.0057239793 2039571
2.586 -0.16024822 -0.2218592 329474
1.707 -0.44522566 -0.044288736 2301967
1.7410001 -0.44283485 -0.036722735 2366990
1.598 -0.44263101 -0.044045437 1711623
2.4630001 -0.26412129 -0.27903259 526336
2.425 -0.25220528 -0.20412421 525568
2.194 -0.29202807 -0.12435073 1966592
2.586 -0.16442905 -0.18003097 395008
1.877 -0.40459761 -0.14281623 854529
1.6440001 -0.42879379 -0.1862483 592388
2.473 -0.19722536 -0.25616521 1381126
1.755 -0.44355851 -0.022824578 2302226
2.493 -0.33182588 -0.19371852 328704
1.717 -0.4367303 -0.069543235 2300173
2.652 -0.1514755 -0.14172994 460800
2.1789999 -0.36401075 -0.1411231 591361
2.454 -0.26315618 -0.25419709 1116672
2.444 -0.28184006 -0.22548924 262912
1.726 -0.42506728 -0.16203664 330756
2.523 -0.18081808 -0.18380691 526082
1.59 -0.44555622 -0.033537708 2105101
1.9349999 -0.41084313 -0.18478738 723972
2.0569999 -0.41346738 -0.23636413 592640
2.5439999 -0.16998434 -0.19768147 263424
1.8279999 -0.41176751 -0.15682855 527622
2.325 -0.38464177 -0.17690343 460544
2.4630001 -0.20439179 -0.25114548 920064
1.985 -0.40862253 -0.16387653 790278
2.473 -0.22521231 -0.16816413 395009
2.3169999 -0.13234116 -0.090097167 1247488
2.618 -0.12837072 -0.2669504 526593
1.671 -0.42773142 -0.18390147 396036
2.415 -0.35658312 -0.27750093 460800
1.7309999 -0.41790304 -0.19610451 329728
2.434 -0.26101145 -0.21669269 460289
2.5539999 -0.17065252 -0.27694875 2628875
1.8660001 -0.40826008 -0.18725276 724226
2.1270001 -0.4069052 -0.19280168 1118471
1.684 -0.43922672 -0.10361669 1315848
2.513 -0.18416421 -0.23998486 2432783
2.454 -0.21951459 -0.21847324 394496
2.4630001 -0.13669834 -0.10374216 920322
2.483 -0.33852345 -0.18089281 328704
1.9910001 -0.41307655 -0.21589857 593152
2.473 -0.34515634 -0.24416505 657152
2.425 -0.35413912 -0.27864999 526593
1.61 -0.43814614 -0.1797923 789506
1.598 -0.44263101 -0.056969166 2037514
1.6569999 -0.45093676 -0.083194137 1447438
1.76 -0.45904931 0.014118523 2367762
2.7449999 -0.13459803 -0.19998017 329729
2.483 -0.32246622 -0.18892525 263424
2.473 -0.32116753 -0.22416481 197377
2.187 -0.11077287 -0.074429743 1380362
1.631 -0.45177171 -0.092441224 1119495
2.0699999 -0.40604064 -0.17089392 657920
2.3699999 -0.36909679 -0.17266047 592386
1.55 -0.441865 -0.17058486 723713
2.513 -0.18416421 -0.28876182 462592
1.6440001 -0.45005682 -0.087859735 1316361
1.59 -0.45069739 -0.11840731 527872
2.493 -0.19478993 -0.20178331 460289
2.618 -0.15376607 -0.22883914 329216
2.425 -0.25220528 -0.1492105 1774853
1.775 -0.45435265 0.01136781 2564373
2.444 -0.25023007 -0.24525495 2103048
2.0699999 -0.23536409 -0.11062631 1966593
1.717 -0.4506098 -0.019553144 2629138
2.473 -0.30117688 -0.20416456 393984
2.721 -0.14661846 -0.18062696 329728
1.6799999 -0.44361559 -0.11967485 1249287
2.4630001 -0.35570654 -0.23919386 132864
2.473 -0.32116753 -0.22816485 197632
2.3610001 -0.28753683 -0.14527257 2037255
2.434 -0.26101145 -0.18519697 459520
2.4630001 -0.20439179 -0.2750487 329728
1.5779999 -0.4472959 -0.15069482 658179
2.483 -0.29436612 -0.18089281 262912
1.6619999 -0.44961047 0.002579317 2038544
2.493 -0.19075945 -0.20581572 526082
1.966 -0.40788975 -0.19092777 789506
2.4630001 -0.1406803 -0.10772604 854272
1.582 -0.44842973 -0.14340021 920322
2.234 -0.39486915 -0.23140843 658433
