# .PCD v0.7 - Point Cloud Data file format
VERSION 0.7
FIELDS x y z rgba
SIZE 4 4 4 4
TYPE F F F U
COUNT 1 1 1 1
WIDTH 1230
HEIGHT 1
VIEWPOINT 0 0 0 1 0 0 0
POINTS 1230
DATA ascii
1.765 -0.39757642 -0.051503297 6818563
1.755 -0.20238516 -0.062566265 5768448
1.796 -0.41617382 -0.12503311 1246208
1.822 -0.37506813 -0.10916078 3932672
1.791 -0.41791072 -0.1217881 1769984
1.76 -0.20580716 -0.068438068 5374976
1.791 -0.41501519 -0.10730349 4261124
1.781 -0.15931356 -0.0058782417 7800582
1.801 -0.2833941 -0.087510943 4653826
1.751 -0.18210781 -0.019940335 7868684
1.796 -0.0938721 -0.02626281 6565410
1.883 -0.10146363 -0.048855118 2430213
1.765 -0.18356384 -0.040083833 7408644
1.801 -0.36492178 -0.0088573489 7868169
1.765 -0.43181843 -0.051503297 4067328
1.765 -0.16073583 -0.0600679 5506817
1.765 -0.15217534 -0.06577763 5112576
1.786 -0.23483457 -0.017450079 8131603
1.806 -0.29586002 0.011566347 1576963
1.822 -0.34266594 0.008721754 8746080
1.786 -0.40808168 -0.034783084 6425600
1.796 -0.41617382 -0.02916782 6031872
1.77 -0.20697653 -0.005841936 7933444
1.755 -0.37262517 -0.073921032 7143680
1.775 -0.40269864 -0.040310934 6359552
1.812 -0.25875962 -0.088045433 4063745
1.791 -0.38026878 -0.0088081686 5836297
1.781 -0.28600577 -0.072135411 5505792
1.796 -0.41617382 -0.11922309 2491137
1.786 -0.36476991 -0.037671916 8062464
1.76 -0.32816011 -0.057050955 6884099
1.775 -0.36252329 -0.048924059 8521984
2.0039999 -0.10150381 -0.055235952 1643008
1.806 -0.10607392 -0.032251406 5250062
1.985 -0.26741871 -0.1092944 2490368
1.817 -0.36228859 -0.0030580848 7474688
1.786 -0.2983585 -0.0058947443 6490889
2.023 -0.11881924 -0.07212054 1969152
1.791 -0.39474645 -0.014602011 4329481
1.822 -0.35150293 -0.0030665 6494727
1.786 -0.41674402 -0.037671916 6425600
1.786 -0.1366612 -0.066560254 4785152
1.855 -0.14793897 -0.087134376 2294785
1.77 -0.34433258 -0.063101016 6883328
1.765 -0.3918694 -0.080051966 5900801
1.791 -0.41211966 -0.11020041 3473920
1.8710001 -0.35188144 -0.11512282 2360064
1.765 -0.28343636 -0.045793567 7540493
1.8660001 -0.10658118 0.0089323772 1249287
1.775 -0.37400195 -0.037439894 8325120
1.775 -0.3252176 -0.08050552 5178369
1.786 -0.28103381 -0.063671418 6357761
1.765 -0.4061369 -0.074342228 5967107
1.77 -0.29568565 -0.068826921 5834242
1.786 -0.22905967 -0.023227748 8067350
1.76 -0.17166217 -0.022889605 7736586
1.76 -0.19442551 -0.039970279 7408131
2.043 -0.23890002 -0.11248788 1639424
1.76 -0.18588924 -0.045663837 7079168
1.812 -0.39937496 -0.11735432 2294016
1.801 -0.34162816 -0.017596638 6818817
1.775 -0.39408964 -0.034568854 7080449
1.775 -0.26782423 -0.043181978 7278602
1.775 -0.36539295 -0.046053018 8193792
1.786 -0.24638438 -0.043449584 7345929
1.775 -0.2793029 -0.057537183 6817285
1.781 -0.2744883 -0.060612421 6423554
1.8329999 -0.12544037 -0.053487562 6096129
1.786 -0.20307259 0.011438259 5709333
1.786 -0.16553572 0.0056605907 7672846
1.781 -0.42133608 -0.10382362 3933952
1.76 -0.21149801 -0.065591291 5703170
1.929 -0.16631514 -0.096850626 1835776
1.791 -0.41791072 -0.12758194 1116161
1.791 -0.2847161 -0.0030143259 6164743
1.812 -0.14158016 0.008673884 7214092
1.796 -0.34358335 -0.098888025 4391424
1.8279999 -0.10441072 -0.0030765983 2037001
1.791 -0.24128307 0.011470281 3217410
1.781 -0.29752323 -0.0778969 5178368
1.786 -0.42251894 -0.040560748 6293760
1.786 -0.15398592 -0.026116582 8527139
1.844 -0.090418488 -0.035912655 6368546
1.781 -0.25433272 -0.043327946 7410443
1.791 -0.26155183 -0.078334279 5112576
1.786 -0.2637091 -0.055004921 6620676
1.775 -0.22477922 -0.074763432 5374208
1.786 -0.41096914 -0.10122626 4457474
1.972 -0.3103016 -0.1117683 2425344
1.801 -0.33580476 -0.00011806005 9204062
1.76 -0.37084138 -0.071284853 7275008
1.76 -0.20865259 -0.054204177 6489600
1.775 -0.20182188 0.0027546857 7610649
1.775 -0.18460387 0.0056257271 7609620
1.801 -0.13198557 -0.0030311563 7604481
1.755 -0.17684916 -0.062566265 5636608
1.76 -0.31962386 -0.039970279 7146501
1.786 -0.21173495 -0.07811559 4457728
1.786 -0.2637091 -0.00011707676 6296329
1.796 -0.1258119 -0.017547784 7277828
1.791 -0.3078804 0.0027795166 3019017
1.755 -0.38964918 -0.062566265 6949888
1.781 -0.42133608 -0.12398884 1443584
1.775 -0.28791192 -0.066150308 6161665
1.844 -0.090418488 -0.038895305 7950143
1.8660001 -0.094514027 -0.04237758 4928798
1.781 -0.20826283 0.0056447438 7283742
1.781 -0.23993587 -0.017401228 8000015
1.77 -0.16691434 -0.028745567 8133397
1.791 -0.36000001 -0.029086618 7931392
1.76 -0.21149801 -0.051357396 6685952
1.954 -0.13688 -0.085463531 2950146
1.786 -0.29547107 -0.0087835779 7211528
1.941 -0.1924541 -0.097453117 2556930
1.781 -0.24857397 -0.0029974955 6951689
1.812 -0.3056314 0.014535662 855809
1.812 -0.41109291 -0.12614699 1049344
1.812 -0.41109291 -0.0030496696 986117
1.755 -0.19387315 -0.062566265 5768448
1.801 -0.41442072 -0.014683541 3608587
1.775 -0.34817493 -0.043181978 7605249
1.77 -0.23559238 -0.068826921 5702144
1.765 -0.22351286 -0.054358166 6489600
1.781 -0.38102493 -0.023162721 7735808
1.806 -0.31629851 0.011566347 1708809
1.849 -0.096642271 -0.041991506 5061413
1.796 -0.41036656 -0.10760305 3867907
1.786 -0.17131063 -0.081004426 3473921
1.751 -0.30383509 -0.059591439 6489600
1.77 -0.34719416 -0.071689881 6097152
1.765 -0.3319459 -0.06577763 6226944
1.791 -0.40343305 -0.10440657 3999235
1.775 -0.15590718 -0.048924059 6753540
1.806 -0.34841618 -0.017645489 7146499
1.755 -0.2988545 -0.056888878 6752513
1.796 -0.42778829 -0.02626281 5836296
1.775 -0.32234794 -0.083376557 4916737
1.765 -0.28628987 -0.048648432 7540747
1.775 -0.24199723 -0.071892396 5505792
1.796 -0.39294487 -0.0030227411 1509632
1.77 -0.16977593 -0.00011602792 7933194
1.77 -0.16691434 -0.005841936 7801862
1.76 -0.16881675 -0.0086557101 7933446
1.77 -0.28137773 -0.045923293 7540493
1.775 -0.16164652 -0.025955729 8132630
1.791 -0.33104467 -0.017498933 6884099
1.806 -0.16154985 0.01448753 6694177
1.775 -0.2706939 -0.048924059 7277321
1.786 -0.26082164 -0.00011707676 6427145
1.77 -0.16405277 -0.048786245 6686978
1.8710001 -0.21878706 -0.093938582 3015939
1.801 -0.17274942 0.014447421 6299417
1.775 -0.26495457 -0.014471563 7213314
1.755 -0.19387315 -0.071082339 4850944
1.775 -0.22190955 -0.020213645 8067091
1.775 -0.21617021 -0.0087294802 8066313
1.812 -0.35250318 -0.0059805582 6492160
1.8329999 -0.34769818 0.00877441 6047029
1.791 -0.37737325 -0.014602011 7014913
1.801 -0.27174729 0.011534325 2168064
1.781 -0.24281524 -0.080777645 4719617
1.77 -0.34433258 -0.060238063 7145472
1.781 -0.42133608 -0.12686959 1116674
1.755 -0.39532384 -0.059727572 6753024
1.8329999 -0.40104005 -0.12760895 1049344
1.822 -0.089339748 -0.014854753 5453863
1.76 -0.17450757 -0.031429943 7738125
1.786 -0.26659653 0.0027717571 5183240
1.786 -0.25215927 -0.037671916 7609358
1.781 -0.22553903 -0.014520481 7607820
1.791 -0.16889469 0.0085733589 7807001
1.796 -0.3087399 0.005692285 2495498
1.8380001 -0.11092494 -0.041741692 4068874
1.775 -0.25060624 -0.071892396 5571585
1.76 -0.19727091 -0.068438068 5113088
1.755 -0.20805982 -0.056888878 6293249
1.775 -0.22190955 -0.031697813 7804432
1.781 -0.26009145 -0.0058782417 7016970
1.801 -0.11160365 -0.017596638 5313805
1.791 -0.21811879 0.0085733589 5971481
1.806 -0.38053381 -0.00011838781 6165764
1.755 -0.30169183 -0.051211495 7014915
1.755 -0.17684916 -0.017147195 7802379
1.755 -0.18819849 -0.073921032 4588801
1.781 -0.27160892 -0.060612421 6292738
1.751 -0.19343127 -0.014275891 7870474
1.801 -0.28048241 -0.087510943 4653826
1.801 -0.40859732 -0.011770445 2492934
1.77 -0.28423932 -0.040197384 7475467
1.786 -0.2868087 -0.011672412 7211782
1.806 -0.27834129 0.011566347 1905152
1.801 -0.085398331 -0.029249022 8010813
1.775 -0.28217259 -0.020213645 7605510
1.781 -0.34071377 -0.086539142 5374465
1.76 -0.17450757 -0.0058089308 7671044
1.786 -0.32723302 -0.014561246 6950152
1.755 -0.17401183 -0.011469811 7933448
1.765 -0.3861624 -0.085761696 6161665
1.755 -0.17684916 -0.076759718 4063745
1.918 -0.24598905 -0.099400684 3080449
1.775 -0.4227863 -0.051795103 6490626
1.8380001 -0.23572882 -0.089308783 3866624
1.765 -0.36333439 -0.068632498 7668993
1.801 -0.14072068 -0.00011806005 7604481
1.796 -0.37842676 -0.098888025 5177600
1.791 -0.14573041 -0.040674303 7082254
1.77 -0.16405277 -0.02301966 7934224
1.76 -0.19727091 -0.037123501 7606023
1.822 -0.11290497 -0.035484198 5053200
1.765 -0.13790783 -0.074342228 3867649
1.76 -0.20865259 -0.048510619 6817024
1.765 -0.21209885 -0.0172449 8066837
1.791 -0.32525361 -0.092818886 4064000
1.822 -0.40157902 0.011668817 2168589
1.775 -0.24199723 -0.060408227 6227456
1.755 -0.29601717 -0.056888878 6752513
1.755 -0.20522249 -0.062566265 5768449
1.796 -0.32325801 -0.09307801 3997952
1.755 -0.19954783 -0.048372805 6882816
1.77 -0.37008685 -0.083141692 6882817
1.775 -0.29652092 -0.028826769 7539717
1.791 -0.14283487 -0.043571223 6950149
1.781 -0.25721207 -0.0029974955 7016459
1.786 -0.16842318 -0.081004426 3408128
1.817 -0.40635213 0.0028198671 1840395
1.806 -0.12359264 -0.029330224 6426375
1.77 -0.14116009 -0.080278739 2753537
1.791 -0.41501519 -0.11020041 3670784
1.781 -0.26872957 -0.011639735 7081989
1.755 -0.37262517 -0.065404952 7866113
1.791 -0.29629824 -0.0030143259 5836296
1.786 -0.24060947 0.0027717571 6757134
1.796 -0.16065533 0.005692285 7213070
1.786 -0.32434559 -0.0087835779 6362641
1.775 -0.3424356 -0.077634476 5703424
1.791 -0.37158218 -0.020395853 7932672
1.844 -0.087437272 -0.038895305 10975596
1.806 -0.35133594 -0.10235982 4391681
1.77 -0.23559238 -0.071689881 5636608
1.77 -0.28423932 -0.054512154 6817283
1.781 -0.34359312 -0.086539142 5505792
1.801 -0.36492178 -0.10207643 4850944
1.822 -0.1364702 0.011668817 7808800
1.8940001 -0.33477268 -0.11347449 2556930
1.781 -0.36086935 -0.089419886 6226944
1.786 -0.22617221 -0.031894248 7870225
1.781 -0.26009145 -0.069254659 5834242
1.775 -0.2706939 -0.028826769 7542027
1.801 -0.27465901 0.011534325 2102016
1.751 -0.18493868 -0.022772556 7934475
1.765 -0.36333439 -0.071487367 7472643
1.791 -0.24996968 -0.031983539 7740687
1.76 -0.19727091 -0.071284853 4850944
1.781 -0.25145334 -0.0058782417 7017482
1.781 -0.25721207 -0.060612421 6161922
1.791 -0.2934027 -0.084128119 4719360
1.76 -0.18873467 -0.051357396 6882817
1.765 -0.3319459 -0.048648432 7475718
1.77 -0.33860943 -0.048786245 7212546
1.781 -0.25145334 -0.0778969 5046784
1.822 -0.21011154 -0.088531338 3212288
1.781 -0.25145334 -0.051970184 6686465
1.796 -0.42778829 -0.02916782 5966853
1.765 -0.3861624 -0.048648432 7342592
1.775 -0.28217259 -0.048924059 7408907
1.796 -0.26228201 0.0085972939 3348225
1.765 -0.41469741 -0.080051966 5507585
1.765 -0.33765289 -0.062922768 6489601
1.812 -0.25875962 -0.090976328 3801601
1.775 -0.3338266 -0.086247601 4981248
1.791 -0.39474645 -0.0088081686 2100227
1.801 -0.40277392 -0.11081571 3081216
1.796 -0.34939057 -0.023357801 7473411
1.775 -0.38548061 -0.031697813 7931906
1.765 -0.29770386 -0.037228964 7409160
1.906 -0.37078977 -0.12652518 1442816
1.855 -0.12694593 -0.063130848 4850944
1.786 -0.28103381 -0.0087835779 7014915
1.801 -0.22516005 0.014447421 2494469
1.855 -0.37586334 -0.12013922 2687491
1.765 -0.3604809 -0.054358166 8587008
1.781 -0.40118051 -0.095181383 4785152
1.796 -0.2477639 -0.034977838 7740944
1.781 -0.16507231 -0.000116749 7735815
1.755 -0.19671048 -0.062566265 5768448
1.781 -0.41269797 -0.040447198 6294784
1.765 -0.33765289 -0.054358166 7146499
1.822 -0.21600285 -0.085584275 3932672
1.822 -0.4163073 0.0028276267 1052937
1.781 -0.15643419 -0.046208691 6818817
1.796 -0.13452277 -0.032072827 10573403
1.765 -0.3661879 -0.077197097 7276034
1.76 -0.29401511 -0.059897736 6489601
1.791 -0.29919377 -0.00011740452 4395272
1.806 -0.13235199 -0.073147975 4326658
1.765 -0.40328342 -0.074342228 6163205
1.781 -0.27160892 -0.023162721 7541511
1.775 -0.38548061 -0.094860725 5308928
1.796 -0.099679343 -0.023357801 6766890
1.791 -0.35420895 -0.095715806 5505792
1.775 -0.29365125 -0.014471563 7081223
1.786 -0.37054482 -0.031894248 8653570
1.822 -0.4163073 0.0057746903 921351
1.765 -0.29485038 -0.06577763 6161664
1.786 -0.4138566 -0.098337427 4588800
1.765 -0.16644284 -0.022954633 7802125
1.8329999 -0.35066161 0.00877441 5387819
1.77 -0.33002466 -0.083141692 5047040
1.775 -0.22190955 -0.011600521 7607818
1.751 -0.18493868 -0.011443669 7737605
1.765 -0.41469741 -0.0600679 6819333
1.844 -0.38257816 -0.11644416 3671811
1.76 -0.37084138 -0.076978408 7209472
1.77 -0.39870268 -0.083141692 5637377
1.77 -0.37867159 -0.045923293 8064001
1.8329999 -0.23805098 -0.089065827 3997952
1.77 -0.33288625 -0.074552834 5834240
1.941 -0.34308013 -0.11942993 2097666
1.781 -0.36662808 -0.089419886 6161664
1.786 -0.34455773 -0.034783084 7145988
1.791 -0.40343305 -0.020395853 5507845
1.791 -0.13993934 -0.043571223 6818563
1.9349999 -0.091752231 -0.050204277 2297088
1.781 -0.23993587 -0.083658397 4129280
1.801 -0.094133437 -0.032162119 7158059
1.796 -0.27970371 0.005692285 3150848
1.775 -0.29078159 -0.023084687 7605512
1.765 -0.19212435 -0.00011570016 7804432
1.765 -0.16929634 -0.028664365 8001811
1.812 -0.31149039 -0.093907215 4063488
1.751 -0.42839321 -0.059591439 4199684
1.86 -0.26561418 -0.096394822 3670530
1.812 -0.26461861 -0.090976328 3932160
1.775 -0.31660858 -0.028826769 7276805
1.786 -0.39941934 -0.029005416 6490368
1.786 -0.34744519 -0.089670926 5702656
1.755 -0.18252382 -0.0057924278 7868423
1.77 -0.35291734 -0.060238063 7932417
1.76 -0.19442551 -0.037123501 7606023
1.786 -0.33300793 -0.020338913 7278085
1.786 -0.24060947 -0.0087835779 7542286
1.786 -0.39941934 -0.098337427 4719872
1.76 -0.36230513 -0.059897736 8521472
1.755 -0.37262517 -0.062566265 8062979
1.786 -0.42829385 -0.037671916 5507584
1.76 -0.37084138 -0.059897736 8521985
1.8329999 -0.1284038 0.014704121 5971994
1.822 -0.3721225 0.008721754 6756108
1.775 -0.19321287 0.0056257271 7611678
1.796 -0.13452277 -0.023357801 9054512
1.755 -0.14563848 -0.082437105 2360576
1.86 -0.3167347 -0.099403352 3801856
1.786 -0.2637091 -0.072337925 5571584
1.786 -0.38498208 -0.10122626 4850433
1.781 -0.3637487 -0.043327946 8194048
1.791 -0.37447771 -0.014602011 7276544
1.755 -0.20238516 -0.042695422 7276545
1.765 -0.22636636 -0.054358166 6555136
1.775 -0.32234794 -0.028826769 7342598
1.796 -0.14323363 -0.017547784 7998726
1.786 -0.30413342 -0.083893254 4915456
1.751 -0.30949682 -0.053926997 7014915
1.77 -0.31285515 -0.020156706 7539719
1.781 -0.32631692 -0.020281974 7277574
1.791 -0.22970094 0.0056764381 6299154
1.786 -0.22617221 -0.0030059107 7476486
1.781 -0.39542177 -0.026043467 6884099
1.8279999 -0.13396426 -0.079952575 3342592
1.96 -0.31158212 -0.11108817 2491136
1.817 -0.10671999 -0.035386819 4331271
1.77 -0.34147099 -0.054512154 7540228
1.888 -0.30318859 -0.10089974 3539712
1.781 -0.15643419 -0.0029974955 7604230
1.76 -0.18019842 -0.0058089308 7736837
1.801 -0.13489728 -0.055466887 6226947
1.755 -0.15415049 -0.071082339 4457216
1.755 -0.36695051 -0.065404952 7799808
1.8329999 -0.12247693 0.002844698 6296331
1.755 -0.18536116 -0.071082339 4785664
1.817 -0.35935101 -0.00011910889 7409921
1.775 -0.28504226 -0.025955729 7540230
1.751 -0.42839321 -0.06525588 4003588
1.755 -0.17968649 -0.076759718 4195074
1.855 -0.22591309 -0.093135253 3342592
1.822 -0.13941586 0.011668817 7611419
1.883 -0.098419361 -0.045809388 3747095
1.77 -0.22700761 -0.048786245 6948864
1.972 -0.30711344 -0.1117683 2359808
1.801 -0.10869195 -0.014683541 4725261
1.791 -0.23259647 -0.031983539 7673360
1.781 -0.13627861 -0.075016156 4064258
1.796 -0.2477639 -0.037882846 7675151
1.791 -0.2673429 -0.07254044 5636864
1.801 -0.30959943 0.011534325 1315333
1.775 -0.42565599 -0.11208697 2558208
1.786 -0.24060947 -0.046338417 6949890
1.812 -0.29977244 0.014535662 855552
1.775 -0.15877685 -0.034568854 7938333
1.755 -0.31304118 -0.065404952 6226944
1.796 -0.41617382 -0.02626281 6098691
1.8329999 -0.10173286 -0.00012015773 1577995
1.796 -0.14323363 -0.011737767 7932933
1.906 -0.096540049 -0.049451862 1970944
1.791 -0.2673429 0.0085733589 2889216
1.76 -0.17166217 -0.020042825 7933197
1.77 -0.38439476 -0.091730557 5702144
1.77 -0.23559238 -0.060238063 6227456
1.806 -0.42141083 -0.011803122 2692111
1.775 -0.29939058 -0.017342605 6884099
1.786 -0.27237144 -0.072337925 5636864
1.796 -0.39004123 -0.0059277499 2361348
1.755 -0.17968649 -0.062566265 5833987
1.786 -0.26659653 -0.063671418 6096129
1.765 -0.28628987 -0.051503297 7079942
1.765 -0.16358934 -0.057213031 5965315
1.76 -0.40214097 -0.059897736 6818563
1.806 -0.27250174 -0.090675078 3932160
1.775 -0.24199723 -0.063279271 6096129
1.801 -0.38239199 -0.0030311563 4983808
1.791 -0.22970094 -0.037777379 7738125
1.751 -0.31232768 -0.051094774 7212294
1.855 -0.14493996 -0.090134814 1836032
1.781 -0.2917645 -0.014520481 7278088
1.77 -0.21556129 -0.031608522 7803919
1.806 -0.14987071 0.0057239793 7605770
1.77 -0.33860943 -0.045923293 7080960
1.806 -0.34549639 -0.0088819386 6427394
1.786 -0.34744519 -0.034783084 7408131
1.801 -0.099956848 -0.014683541 4338460
1.791 -0.39185092 -0.011705089 3476741
1.775 -0.25634557 -0.020213645 7672836
1.765 -0.4204044 -0.091471434 4590080
1.786 -0.40230677 -0.029005416 6293760
1.76 -0.143208 -0.07413163 3802369
1.801 -0.27757069 -0.084597848 4850944
1.781 -0.24281524 -0.017401228 7934734
1.791 -0.13993934 -0.037777379 6688785
1.786 -0.15109846 -0.043449584 7147018
1.751 -0.42839321 -0.085081436 3083270
1.755 -0.38113719 -0.068243645 7080195
1.812 -0.39644548 -0.11735432 2556160
1.77 -0.41587219 -0.086004645 5244672
1.801 -0.13489728 -0.049640693 6424576
1.796 -0.13452277 -0.040787853 6949900
1.775 -0.4141773 -0.094860725 4392704
1.801 -0.41150901 -0.11664191 2556160
1.796 -0.1867879 0.014407312 5184786
1.775 -0.2534759 -0.011600521 7476234
1.786 -0.40808168 -0.10122626 4326658
1.822 -0.35150293 -0.00011943665 6167306
1.801 -0.23971857 0.014447421 2496000
1.77 -0.32716307 -0.037334431 7212295
1.765 -0.32623887 -0.071487367 5899520
1.786 -0.39653188 -0.098337427 5047296
1.755 -0.17968649 -0.073921032 4457217
1.781 -0.22265966 -0.080777645 4587520
1.765 -0.20924535 -0.031519234 7803919
1.918 -0.115753 -0.05596789 3279360
1.791 -0.13993934 -0.040674303 7082252
1.76 -0.20296176 -0.0086557101 8000009
1.801 -0.38821539 -0.0030311563 2951424
1.755 -0.19954783 -0.028501961 7541259
1.941 -0.35249427 -0.12570901 1114624
1.786 -0.33878285 -0.092559762 4718848
1.796 -0.2768001 0.0085972939 2495488
1.855 -0.16893199 -0.087134376 2950146
1.8279999 -0.10441072 -0.00011982997 2037261
1.786 -0.36765736 -0.029005416 8456192
1.775 -0.32234794 -0.086247601 4523008
1.791 -0.23259647 -0.084128119 4325632
1.796 -0.36681229 -0.011737767 7671301
1.775 -0.3969593 -0.037439894 6884610
1.765 -0.42896491 -0.051503297 4853764
1.786 -0.22328477 -0.00011707676 7609360
1.76 -0.1460534 -0.071284853 4195072
1.817 -0.10965756 -0.035386819 4527369
1.791 -0.30498484 0.0027795166 2953478
1.801 -0.35618666 -0.017596638 7737094
1.796 -0.26518562 -0.078552969 5112576
1.796 -0.41327021 -0.020452794 5443592
1.8380001 -0.11686797 0.0028524578 4790030
1.76 -0.17166217 -0.014349268 7867144
1.806 -0.12943222 -0.0030395715 7473411
1.775 -0.15590718 -0.0087294802 7800069
1.781 -0.26297083 -0.051970184 6818055
1.775 -0.28791192 -0.023084687 7540230
1.755 -0.17968649 -0.017147195 7868171
1.812 -0.12693273 -0.00011878113 7081478
1.755 -0.30169183 -0.054050189 6949122
1.775 -0.20756121 -0.00011635568 7740435
1.76 -0.42490429 -0.11398654 2164737
1.775 -0.21903989 -0.034568854 7671562
1.801 -0.42024413 -0.02342283 6297358
1.791 -0.41501519 -0.10440657 4457474
1.77 -0.16691434 -0.0029789819 7735815
1.822 -0.36623117 0.008721754 6821903
1.786 -0.33589539 -0.023227748 7145989
1.77 -0.30140883 -0.074552834 5636608
1.786 -0.23772202 -0.017450079 8000017
1.801 -0.14363238 -0.00011806005 7670276
1.812 -0.40230444 0.005742996 1774089
1.755 -0.17968649 -0.019985886 7933964
1.8279999 -0.11327678 -0.00011982997 4397841
1.76 -0.19727091 -0.051357396 6751744
1.77 -0.39011794 -0.037334431 7342338
1.985 -0.33160228 -0.11571582 2228993
1.822 -0.12763324 0.008721754 6362126
1.76 -0.17450757 -0.054204177 6357504
1.775 -0.31086925 -0.031697813 7276804
1.751 -0.19626215 -0.017108113 8067601
1.751 -0.42556235 -0.0935781 2755585
1.796 -0.33487248 -0.0059277499 6301468
1.791 -0.27892503 0.0027795166 4265477
1.796 -0.14033 -0.02626281 11031901
1.77 -0.23273079 -0.060238063 6293248
1.781 -0.25145334 -0.028924214 7805710
1.812 -0.094708383 -0.011842336 7170132
1.765 -0.21780585 -0.048648432 6948609
1.8329999 -0.39511317 -0.12167925 2163200
1.77 -0.36722526 -0.051649202 8521216
1.786 -0.15398592 -0.011672412 7866374
1.796 -0.19840239 0.014407312 4529427
1.781 -0.22265966 -0.0087589882 7870474
1.791 -0.15152147 -0.026189696 8461607
1.791 -0.38605985 -0.014602011 5705221
1.781 -0.15643419 -0.040447198 7148299
1.855 -0.11794891 0.0088797221 4135184
1.755 -0.19387315 -0.028501961 7606793
1.77 -0.16405277 -0.045923293 6752771
1.791 -0.36868662 -0.026189696 8259840
1.883 -0.38458103 -0.12499838 1966593
1.817 -0.40635213 0.0057588429 1643016
1.765 -0.14076133 -0.074342228 3867649
1.755 -0.14563848 -0.079598412 2753792
1.791 -0.27023843 -0.00011740452 5837575
1.775 -0.25060624 -0.074763432 5374720
1.796 -0.35519782 -0.02916782 7800833
2.017 -0.17064144 -0.10779385 1312513
1.755 -0.3754625 -0.059727572 8128770
1.791 -0.13993934 -0.046468146 6688258
1.786 -0.25793418 -0.031894248 7805451
1.791 -0.37737325 -0.0088081686 6491657
1.775 -0.25060624 -0.060408227 6161664
1.796 -0.28841457 0.0085972939 2364163
1.796 -0.40746295 -0.020452794 5376773
1.77 -0.29568565 -0.074552834 5309184
1.77 -0.23559238 -0.065963969 5899520
1.77 -0.33860943 -0.074552834 5769217
1.755 -0.38681185 -0.065404952 6949888
1.781 -0.26009145 -0.06349317 6096129
1.786 -0.30124596 -0.081004426 5112576
1.781 -0.33207566 -0.028924214 7080196
1.791 -0.14283487 -0.037777379 7017750
1.817 -0.40047699 0.008697819 1839624
1.765 -0.40899041 -0.077197097 5573376
1.786 -0.2637091 -0.063671418 6096129
1.781 -0.27160892 -0.057731677 6620676
1.796 -0.201306 0.014407312 4398354
1.775 -0.34530526 -0.077634476 5834240
1.796 -0.29422182 0.0085972939 2102019
1.77 -0.16405277 -0.040197384 7016970
1.806 -0.10899371 -0.011803122 4726288
1.775 -0.3510446 -0.083376557 6489600
1.781 -0.22841839 -0.020281974 8132114
1.765 -0.18927084 -0.00011570016 7738638
1.791 -0.1775813 0.011470281 7218460
1.755 -0.17684916 -0.068243645 5047810
1.796 -0.15775172 0.005692285 7213070
1.812 -0.33785576 0.005742996 9865840
1.775 -0.29078159 -0.031697813 7541000
1.781 -0.22553903 -0.040447198 7541000
1.755 -0.39532384 -0.065404952 6819331
1.812 -0.26754808 -0.088045433 4194304
1.786 -0.30990833 -0.089670926 4391424
1.9349999 -0.091752231 -0.047074437 4071697
1.755 -0.19671048 -0.034179345 7540230
1.906 -0.096540049 -0.04636893 3220749
1.786 -0.21173495 0.0056605907 7086364
1.775 -0.37974128 -0.031697813 8194049
1.8380001 -0.10795341 -0.041741692 3478790
1.76 -0.42490429 -0.11113976 2165504
1.812 -0.11521479 -0.011842336 5444619
1.77 -0.39584109 -0.080278739 5900803
1.796 -0.35810143 -0.023357801 8064003
1.781 -0.36950746 -0.089419886 6161664
1.796 -0.26518562 -0.084362984 4588032
1.791 -0.43238842 -0.029086618 4919817
1.751 -0.42839321 -0.082249209 3280649
1.765 -0.30911788 -0.074342228 5505792
1.786 -0.41674402 -0.10989276 3605760
1.76 -0.33385095 -0.051357396 7212292
1.77 -0.29854724 -0.071689881 5702656
1.77 -0.37008685 -0.086004645 6685697
1.791 -0.33394021 -0.014602011 6819591
1.8710001 -0.091742404 -0.0061752894 3549475
1.781 -0.42421544 -0.043327946 6163457
1.765 -0.41469741 -0.054358166 6555392
1.786 -0.26659653 -0.052116085 6948871
1.77 -0.37008685 -0.080278739 7078913
1.77 -0.35291734 -0.080278739 6685952
1.786 -0.26082164 0.0027717571 5510406
1.929 -0.2006202 -0.096850626 2885123
1.76 -0.33385095 -0.059897736 6752513
1.817 -0.35641345 -0.00011910889 6820096
1.806 -0.10899371 -0.0088819386 4530451
1.755 -0.18819849 -0.076759718 4326658
1.755 -0.19954783 -0.031340655 7672332
1.786 -0.37343225 -0.023227748 8194816
1.775 -0.34530526 -0.083376557 5899520
1.791 -0.33104467 -0.014602011 6621701
1.76 -0.20580716 -0.051357396 6685952
1.822 -0.11879628 -0.00011943665 5772299
1.755 -0.20805982 -0.059727572 5899520
1.786 -0.23483457 -0.014561246 7672333
1.755 -0.17684916 -0.014308503 7868169
1.806 -0.34841618 -0.014724306 6884608
1.765 -0.41184393 -0.071487367 6032897
1.775 -0.29365125 -0.028826769 7606023
1.77 -0.16119118 -0.040197384 7214349
1.8279999 -0.35857114 0.0028369382 6886150
1.775 -0.39982897 -0.037439894 6622465
1.781 -0.25721207 -0.0087589882 7214091
1.8329999 -0.13136724 0.014704121 6891554
1.76 -0.2911697 -0.045663837 7540747
1.786 -0.29258361 -0.011672412 7212295
1.806 -0.27542153 -0.087753892 4391424
1.786 -0.40230677 -0.10122626 4326658
1.775 -0.15590718 -0.054666143 5703424
1.806 -0.14695093 0.0028027957 7802376
1.76 -0.37937763 -0.079825185 6817024
1.775 -0.15590718 -0.014471563 7801096
1.786 -0.22328477 -0.0030059107 7476486
1.781 -0.27160892 -0.066373914 6030336
1.775 -0.2706939 -0.051795103 7079944
1.775 -0.35678396 -0.048924059 8259840
1.76 -0.21434343 -0.054204177 6489600
1.76 -0.20011634 -0.071284853 4916737
1.786 -0.2868087 -0.07811559 5309184
1.918 -0.29250193 -0.10560536 2818560
1.786 -0.30124596 -0.0058947443 5770506
1.86 -0.11525974 -0.045249846 3869952
1.817 -0.40341458 0.008697819 1774089
1.806 -0.40681189 -0.11988691 2032384
1.855 -0.16893199 -0.084133931 3277312
1.755 -0.30452916 -0.062566265 6358016
1.781 -0.38966301 -0.026043467 7605251
1.765 -0.42611143 -0.054358166 5573378
1.781 -0.25145334 -0.0029974955 6885896
1.775 -0.1645162 -0.025955729 7935251
1.786 -0.34455773 -0.031894248 7145988
1.77 -0.34719416 -0.063101016 7080448
1.765 -0.17214984 -0.0058254334 7671044
1.812 -0.41402239 -0.0030496696 921094
1.77 -0.42445695 -0.10031942 3541762
1.812 -0.32613781 -0.096838102 3801856
1.791 -0.15152147 -0.011705089 7866374
1.812 -0.24411219 -0.090976328 3473921
1.781 -0.17658977 0.0027639973 7606539
1.775 -0.2793029 -0.048924059 7408907
1.8279999 -0.38221398 0.011707244 5051656
1.775 -0.2706939 -0.017342605 7475203
1.812 -0.35250318 -0.011842336 7148296
1.801 -0.32415795 0.0057081324 8485480
1.786 -0.41096914 -0.098337427 4588801
1.775 -0.41130763 -0.051795103 6686978
1.77 -0.34147099 -0.060238063 6949122
1.849 -0.36269039 -0.11376916 3473920
1.77 -0.21842286 -0.045923293 7145218
1.755 -0.31871584 -0.065404952 6161152
1.76 -0.29970595 -0.065591291 6227456
1.781 -0.13627861 -0.0778969 3342592
1.796 -0.12871553 -0.023357801 8922661
1.8279999 -0.11623213 -0.00011982997 5183759
1.801 -0.38821539 -0.10498952 4653826
1.855 -0.12994494 -0.066131294 4785152
1.801 -0.36492178 -0.099163331 5112576
1.76 -0.19727091 -0.07413163 4719872
1.8279999 -0.1250982 0.0057937065 6624785
1.775 -0.4227863 -0.11782905 2229505
1.796 -0.13161916 -0.032072827 11756390
1.8940001 -0.36233121 -0.12266506 1507840
1.775 -0.33956593 -0.040310934 7475464
1.786 -0.14532356 -0.052116085 6293249
1.781 -0.25721207 -0.072135411 5506304
1.755 -0.3243905 -0.054050189 7146501
1.755 -0.42653453 -0.099469252 2428674
1.775 -0.2620849 -0.017342605 7540996
1.781 -0.25145334 -0.054850928 6555394
1.796 -0.33487248 -0.095983021 4195585
1.786 -0.24060947 -0.020338913 7934222
1.941 -0.35249427 -0.12256947 1573632
1.791 -0.33973128 -0.026189696 7080196
1.77 -0.33860943 -0.068826921 5965312
1.796 -0.39004123 -0.10469805 4457474
1.77 -0.35864049 -0.054512154 8587264
1.796 -0.13161916 -0.02916782 12479859
1.8329999 -0.12247693 0.0058095539 6297360
1.781 -0.24857397 -0.0058782417 7083529
1.765 -0.41184393 -0.057213031 6884356
1.765 -0.17500333 -0.042938698 7080708
1.786 -0.39364442 -0.10122626 4719360
1.765 -0.20639186 -0.077197097 4326656
1.775 -0.22190955 -0.037439894 7671562
1.806 -0.37469426 -0.00011838781 6624000
1.775 -0.27356356 -0.048924059 7408907
1.812 -0.38472754 0.0028121073 5772810
1.775 -0.28217259 -0.025955729 7475207
1.77 -0.39584109 -0.091730557 5244160
1.775 -0.29365125 -0.025955729 7539717
1.76 -0.2911697 -0.059897736 6489601
1.781 -0.26009145 -0.037566453 7410954
1.8380001 -0.23572882 -0.092281722 3538944
1.822 -0.36328554 -0.10621372 4523010
1.77 -0.34719416 -0.060238063 7407872
1.781 -0.3464725 -0.040447198 7606023
1.822 -0.11585063 -0.0060135634 5511695
1.755 -0.29601717 -0.048372805 7277574
1.801 -0.13198557 -0.06129308 5637380
2.0039999 -0.29589754 -0.11358199 2425601
1.812 -0.15036862 0.014535662 7677731
1.781 -0.26585019 -0.0087589882 7016712
1.9349999 -0.094880573 -0.050204277 1970432
1.812 -0.091778889 -0.011842336 6971213
1.76 -0.18019842 -0.028583163 7737609
1.812 -0.27047756 0.014535662 2102276
1.806 -0.10899371 -0.032251406 5446929
1.791 -0.30498484 -0.089921966 4391424
1.775 -0.31947827 -0.023084687 7342340
1.76 -0.18588924 -0.03427672 7606023
1.765 -0.22065936 -0.054358166 6489600
1.781 -0.26297083 -0.040447198 7475981
1.918 -0.35451907 -0.12421942 1180416
1.796 -0.28841457 0.0027872764 3938055
1.929 -0.28794217 -0.10309089 3277312
1.806 -0.13235199 -0.064384423 5244162
1.791 -0.40053752 -0.020395853 5704710
1.77 -0.155468 -0.057375107 5376258
1.76 -0.14889883 -0.07413163 3736576
1.781 -0.40693924 -0.037566453 6425600
1.755 -0.2988545 -0.059727572 6555392
1.966 -0.13136369 -0.079628415 3213569
1.806 -0.3863734 -0.105281 4719619
1.929 -0.28482354 -0.10621103 2884099
1.791 -0.38895538 -0.011705089 4066566
1.77 -0.38725635 -0.043060336 7473664
1.801 -0.35618666 -0.02342283 7932933
1.765 -0.28343636 -0.042938698 7475467
1.755 -0.41802251 -0.062566265 6491908
1.755 -0.38397452 -0.059727572 7604480
1.77 -0.38153318 -0.045923293 7867392
1.796 -0.18969153 -0.081457973 3933442
1.775 -0.40843797 -0.046053018 6688517
1.796 -0.10548658 -0.017547784 5186580
1.812 -0.12986222 -0.058736552 5833474
2.023 -0.11881924 -0.068848364 2034432
1.791 -0.37158218 -0.023292774 8129024
1.781 -0.17371041 0.0027639973 7671563
1.76 -0.37368679 -0.079825185 7012864
1.781 -0.26297083 -0.0087589882 7082505
1.796 -0.41327021 -0.12503311 1114624
1.817 -0.38872671 -0.10886122 4391681
1.77 -0.27851614 -0.040197384 7410188
1.77 -0.33574784 -0.083141692 5243392
1.76 -0.41921347 -0.076978408 5769985
1.755 -0.31587851 -0.054050189 7080708
1.77 -0.37867159 -0.043060336 7998208
1.775 -0.15590718 -0.023084687 8393235
1.883 -0.38153675 -0.12499838 1769728
1.781 -0.14779609 -0.057731677 5703173
1.775 -0.30226025 -0.025955729 7407872
1.77 -0.28137773 -0.043060336 7541260
1.76 -0.32816011 -0.065591291 6226944
1.781 -0.25721207 -0.06349317 5965312
1.775 -0.28217259 -0.051795103 7014149
1.8279999 -0.36152649 0.0057937065 7018253
1.77 -0.34433258 -0.074552834 5900288
1.812 -0.12107376 -0.032358553 6426893
1.796 -0.34067971 -0.095983021 4522240
1.786 -0.24927182 0.0027717571 5706756
1.781 -0.24281524 -0.083658397 4195072
1.755 -0.3243905 -0.065404952 6292736
1.755 -0.39248651 -0.062566265 6884608
1.786 -0.36765736 -0.031894248 8521984
1.796 -0.36681229 -0.014642776 7605249
1.775 -0.33095694 -0.034568854 7014916
1.77 -0.37867159 -0.088867605 6357761
1.8329999 -0.38029599 -0.10981982 4064000
1.786 -0.23772202 -0.011672412 7672846
1.781 -0.24857397 -0.023162721 7607050
1.786 -0.36765736 -0.037671916 8193536
1.822 -0.11879628 -0.038431261 5705738
1.822 -0.31026375 -0.094425462 4063488
1.817 -0.40341458 -0.12061712 1770241
1.822 -0.42219859 0.0028276267 987657
1.9119999 -0.3348631 -0.11455292 2491394
1.947 -0.18045804 -0.091455862 2950146
1.791 -0.38026878 -0.011705089 6294789
1.801 -0.12616217 -0.040901408 6359040
1.786 -0.37343225 -0.026116582 8325888
1.786 -0.23483457 -0.020338913 8131603
1.755 -0.30169183 -0.042695422 7277574
1.822 -0.42219859 0.0057746903 856071
1.76 -0.19442551 -0.07413163 4719872
1.76 -0.36799595 -0.076978408 7275264
1.751 -0.18493868 -0.019940335 8066063
1.966 -0.27439442 -0.10506827 3342594
1.806 -0.37177446 -0.00011838781 7083008
1.806 -0.33089745 0.0086451629 8617317
1.791 -0.29050717 0.0027795166 3740935
1.755 -0.19954783 -0.065404952 5440512
1.765 -0.3918694 -0.082906827 5834240
1.791 -0.14862594 -0.017498933 8195337
1.801 -0.2833941 0.0057081324 3085313
1.755 -0.42369717 -0.073921032 5050630
1.812 -0.12986222 -0.061667439 5440258
1.755 -0.18819849 -0.068243645 5244419
1.77 -0.34147099 -0.074552834 5835008
1.812 -0.29098397 0.014535662 1380097
1.77 -0.40728745 -0.086004645 5374976
1.801 -0.13489728 -0.058379982 6096132
1.765 -0.30055737 -0.068632498 5964544
1.775 -0.3338266 -0.040310934 7343880
1.755 -0.14280115 -0.082437105 2360578
1.76 -0.14889883 -0.071284853 4260864
1.76 -0.1602805 -0.065591291 5178880
1.812 -0.15329811 0.011604773 7281688
1.765 -0.32338539 -0.071487367 5899520
1.786 -0.23194712 -0.0058947443 7476747
1.801 -0.21642494 0.014447421 2952713
1.751 -0.31232768 -0.056759216 6752258
1.765 -0.42325792 -0.082906827 5376773
1.8380001 -0.15549774 -0.089308783 2163457
1.775 -0.28504226 -0.023084687 7540230
1.791 -0.36289555 -0.026189696 8325633
1.791 -0.31077594 0.0027795166 2953224
1.796 -0.27099288 -0.081457973 5047040
1.76 -0.32816011 -0.051357396 7541257
1.8329999 -0.098769434 -0.00012015773 1511950
1.786 -0.14532356 -0.049227253 6425088
1.786 -0.24927182 -0.083893254 4195072
1.791 -0.33394021 -0.0088081686 5837579
1.812 -0.35543266 -0.0059805582 7016710
1.76 -0.31393301 -0.068438068 6030336
1.765 -0.41755092 -0.0600679 6490368
1.77 -0.16691434 -0.043060336 6753540
1.791 -0.14862594 -0.0088081686 7931395
1.781 -0.37238681 -0.089419886 6226944
1.786 -0.41674402 -0.1127816 3343360
1.755 -0.32155317 -0.048372805 7672843
1.781 -0.31767881 -0.011639735 7212809
1.786 -0.35899499 -0.037671916 7800320
1.765 -0.18071035 -0.040083833 7146242
1.781 -0.14779609 -0.054850928 5965315
1.765 -0.22636636 -0.057213031 6423808
1.786 -0.23194712 -0.0030059107 7542027
1.786 -0.15109846 -0.031894248 9189952
1.755 -0.19387315 -0.048372805 6882816
1.883 -0.14408346 -0.091495343 1901825
1.781 -0.38102493 -0.026043467 8129537
1.796 -0.19549876 0.014407312 4660243
1.765 -0.18356384 -0.042938698 7210752
1.751 -0.30383509 -0.048262551 7343367
1.775 -0.42565599 -0.11495801 2426882
1.954 -0.15583436 -0.098105818 1639936
1.751 -0.17927694 -0.011443669 7934216
1.817 -0.10378242 -0.0059970608 3287320
1.77 -0.20697653 -0.0029789819 7804170
1.8329999 -0.34769818 0.0058095539 5190176
1.781 -0.25721207 -0.049089439 7080455
1.801 -0.085398331 -0.02342283 6234404
1.765 -0.22065936 -0.068632498 5767681
1.775 -0.39408964 -0.094860725 5046784
1.822 -0.11879628 -0.0030665 5903370
1.755 -0.18252382 -0.059727572 6096129
1.755 -0.15982515 -0.073921032 4195072
1.755 -0.31587851 -0.062566265 6555394
1.822 -0.39863336 -0.12094904 2031872
1.801 -0.32124624 0.0057081324 6313546
1.77 -0.42445695 -0.097456463 3738112
1.755 -0.19954783 -0.056888878 6227456
1.786 -0.26082164 -0.075226754 5374720
1.76 -0.18304384 -0.048510619 6882048
1.796 -0.14033 -0.034977838 8401204
1.849 -0.38062623 -0.11975063 2818820
1.775 -0.14729819 -0.063279271 5440771
1.76 -0.39075929 -0.057050955 7212035
1.775 -0.31947827 -0.08050552 4981248
1.765 -0.4204044 -0.088616565 5048321
1.941 -0.35563231 -0.12570901 1114624
1.786 -0.24349692 -0.026116582 7870992
1.755 -0.19103582 -0.0029537363 8000268
1.781 -0.23129778 -0.020281974 8263189
1.8279999 -0.11623213 -0.0030765983 5248782
1.755 -0.16549982 -0.071082339 4588032
1.786 -0.28969616 -0.081004426 4981248
1.775 -0.29365125 -0.031697813 7409414
1.775 -0.2620849 -0.014471563 7344900
1.76 -0.42490429 -0.094059087 3279360
1.796 -0.24195667 -0.032072827 7674126
1.755 -0.39248651 -0.059727572 7015681
1.786 -0.15398592 -0.0058947443 7734275
1.796 -0.35810143 -0.02626281 8063490
1.796 -0.23905306 -0.037882846 7674126
1.812 -0.37593907 -0.10563077 4260096
1.77 -0.21556129 -0.020156706 8001811
1.76 -0.18019842 -0.051357396 6750977
1.76 -0.37084138 -0.054204177 8390400
1.812 -0.12986222 -0.055805665 6226947
1.806 -0.32797766 -0.096517444 3801856
1.77 -0.23559238 -0.074552834 5374208
1.801 -0.34162816 -0.014683541 6688258
1.786 -0.22039731 -0.0058947443 7738629
1.781 -0.20250408 0.0056447438 7546398
1.786 -0.27237144 -0.0030059107 6296070
1.822 -0.41925293 0.0028276267 921864
1.77 -0.38725635 -0.088867605 5767168
1.941 -0.10772695 -0.059778582 1969154
1.76 -0.3253147 -0.045663837 7541257
1.855 -0.20192106 -0.087134376 3474432
1.755 -0.21089716 -0.056888878 6227456
1.76 -0.20011634 -0.037123501 7540230
1.781 -0.42133608 -0.1211081 1901825
1.849 -0.16539629 -0.086852536 2818817
1.801 -0.29212922 -0.090424038 4260096
1.781 -0.25721207 -0.040447198 7607567
1.806 -0.42433062 -0.014724306 3479057
1.76 -0.36799595 -0.057050955 8718338
1.775 -0.15877685 -0.017342605 7997707
1.781 -0.28312641 -0.060612421 6423808
1.76 -0.17735299 -0.0029621515 7802376
1.855 -0.12994494 -0.063130848 5178368
1.77 -0.16405277 -0.017293751 8063502
1.781 -0.27736765 -0.069254659 6096131
1.77 -0.39584109 -0.086004645 5571584
1.806 -0.11483328 -0.026409039 5706251
1.812 -0.36422113 -0.00011878113 9908514
1.751 -0.18210781 -0.017108113 7934477
1.781 -0.26009145 -0.060612421 6227458
1.791 -0.14283487 -0.055158909 5965312
1.791 -0.32235807 -0.00011740452 6836545
1.781 -0.25145334 -0.026043467 7739404
1.755 -0.17117448 -0.068243645 4982017
1.786 -0.23772202 -0.083893254 4194304
1.765 -0.22065936 -0.048648432 6948609
1.791 -0.3020893 -0.087025039 4653312
1.791 -0.19205897 -0.081231199 3933442
1.775 -0.40269864 -0.089118637 5309185
1.765 -0.28914338 -0.045793567 7606540
1.806 -0.11483328 -0.029330224 5509901
1.77 -0.29568565 -0.034471475 7343367
1.844 -0.10830582 0.0058444175 2430991
1.796 -0.36681229 -0.0088327583 7539717
1.806 -0.14111136 0.0057239793 7672332
1.765 -0.38330889 -0.085761696 6358531
1.812 -0.12107376 -0.0089114467 6688517
1.781 -0.3637487 -0.089419886 6161664
1.947 -0.18990126 -0.097754359 2425601
1.77 -0.37294844 -0.048786245 8259840
1.796 -0.13161916 -0.023357801 9119787
1.796 -0.32906523 -0.0030227411 5189151
1.77 -0.22700761 -0.071689881 5701890
1.786 -0.41963148 -0.037671916 6294016
1.76 -0.39075929 -0.071284853 6293760
1.791 -0.25576076 -0.084128119 4457216
1.775 -0.24773656 -0.054666143 6555392
1.76 -0.17166217 -0.017196048 7866891
1.765 -0.31197137 -0.074342228 5505792
1.801 -0.12907387 -0.026335925 12214368
2.0699999 -0.2320175 -0.11062631 1966592
1.765 -0.21495235 -0.071487367 5309185
1.812 -0.13572119 0.008673884 7148558
1.775 -0.2706939 -0.034568854 7542286
1.786 -0.2752589 -0.0058947443 6754311
1.812 -0.3671506 -0.00011878113 10238246
1.765 -0.40899041 -0.062922768 7674640
1.817 -0.09496972 -0.038325798 5913383
1.765 -0.20924535 -0.037228964 7671305
1.786 -0.33878285 -0.089670926 5046784
1.812 -0.25583014 -0.090976328 3604736
1.791 -0.40343305 -0.017498933 4918795
1.941 -0.2363867 -0.10059266 2753539
1.77 -0.42159536 -0.09459351 4196864
1.806 -0.13527179 -0.064384423 5178628
1.786 -0.38498208 -0.020338913 6948864
1.8279999 -0.42358893 0.008750475 1184523
1.796 -0.14323363 -0.014642776 7801860
1.796 -0.19259515 0.014407312 4922386
1.755 -0.37829983 -0.073921032 7145219
1.801 -0.12616217 -0.032162119 6229000
1.765 -0.14646833 -0.068632498 4719104
1.786 -0.15687338 -0.00011707676 7407878
1.755 -0.31871584 -0.062566265 6489601
1.775 -0.25921524 -0.023084687 7475714
1.8329999 -0.35066161 0.011739265 3350807
1.77 -0.33002466 -0.080278739 5309184
1.77 -0.40728745 -0.051649202 6621185
1.806 -0.085635416 -0.020566672 6235168
1.812 -0.40523395 -0.1232161 1377024
1.791 -0.14283487 -0.046468146 6622465
1.77 -0.34147099 -0.057375107 7277828
1.781 -0.26009145 -0.043327946 7278602
1.806 -0.3221381 0.011566347 4208170
1.77 -0.16119118 -0.0087048896 7867144
1.9119999 -0.10920858 0.012245213 1183237
1.812 -0.40523395 -0.00011878113 1643016
1.786 -0.43118128 -0.037671916 4918528
1.822 -0.38685074 0.011668817 4528396
1.791 -0.15441701 -0.00011740452 7539207
1.786 -0.28969616 -0.011672412 7277575
1.791 -0.1370438 -0.014602011 7735554
1.806 -0.39221296 -0.10820218 4064000
1.77 -0.36436367 -0.080278739 7079426
1.786 -0.22905967 -0.0058947443 7673611
1.765 -0.21209885 -0.025809499 7805459
1.791 -0.24128307 -0.029086618 7805201
1.765 -0.39472291 -0.048648432 6884356
1.765 -0.32338539 -0.040083833 7146501
1.775 -0.24199723 -0.074763432 5374465
1.775 -0.36826262 -0.046053018 8128000
1.812 -0.40816343 -0.1232161 1508352
1.76 -0.33100554 -0.059897736 6752258
1.786 -0.19441025 0.011438259 6103319
1.806 -0.39805254 -0.00011838781 1576450
1.786 -0.24349692 -0.0087835779 7411470
2.023 -0.25291437 -0.11138668 2031872
1.786 -0.41096914 -0.031894248 6097152
1.786 -0.24638438 -0.046338417 7016196
1.775 -0.29652092 -0.031697813 7408644
1.775 -0.32234794 -0.031697813 6948610
1.849 -0.20425725 -0.086852536 3474432
1.775 -0.23912756 -0.060408227 6227456
1.786 -0.27814636 -0.072337925 5702656
1.801 -0.13198557 -0.055466887 6226947
1.755 -0.19103582 -0.048372805 7079425
1.786 -0.34744519 -0.031894248 7408131
1.76 -0.36515054 -0.062744513 8324352
1.855 -0.12394692 -0.057129968 5374980
1.855 -0.14793897 -0.090134814 1967361
1.765 -0.33479938 -0.06577763 6292736
1.755 -0.37262517 -0.076759718 7143680
1.796 -0.30293268 0.005692285 2429701
1.775 -0.2620849 -0.025955729 7738886
1.77 -0.22128445 -0.040197384 7539976
1.765 -0.40899041 -0.054358166 6686465
1.8329999 -0.35066161 -0.10685497 3736321
1.791 -0.3020893 0.0027795166 3281929
1.796 -0.41036656 -0.11050806 3277312
1.796 -0.14033 -0.017547784 7867140
1.77 -0.35005575 -0.071689881 6424576
1.775 -0.40269864 -0.091989681 5178626
1.77 -0.32716307 -0.077415787 5440512
1.806 -0.10315413 -0.0088819386 4668458
1.844 -0.10234337 -0.041877951 3284234
1.76 -0.20580716 -0.017196048 8066837
1.76 -0.33385095 -0.057050955 6884099
1.812 -0.30856088 0.014535662 1184774
1.806 -0.13819157 0.0028027957 7671303
1.796 -0.30002904 0.005692285 2561287
1.8279999 -0.42063358 0.008750475 1118732
1.796 -0.3697159 -0.017547784 7802112
1.812 -0.27633655 0.014535662 1839874
1.76 -0.17735299 -0.028583163 7737609
1.849 -0.29094708 -0.095824748 3866880
1.855 -0.12694593 -0.066131294 4588800
1.966 -0.34114209 -0.12096818 1966593
1.775 -0.1989522 0.0056257271 7612191
1.775 -0.39982897 -0.091989681 5178880
1.765 -0.20924535 -0.0172449 8001046
1.849 -0.10262088 0.002869529 1052937
1.775 -0.33095694 -0.031697813 7014403
1.9 -0.29590037 -0.10461428 2949376
1.77 -0.22414604 -0.043060336 7277828
1.978 -0.22490348 -0.10251019 2228993
2.0039999 -0.29913744 -0.11358199 2425601
1.765 -0.17500333 -0.045793567 6817024
1.76 -0.17450757 -0.0029621515 7867655
1.775 -0.27356356 -0.028826769 7672843
1.77 -0.34433258 -0.068826921 6031360
1.786 -0.37920716 -0.023227748 8064001
1.755 -0.18536116 -0.0029537363 7802889
1.77 -0.34433258 -0.048786245 7801858
1.791 -0.35710448 -0.034880459 7735040
1.8329999 -0.37733254 -0.11278468 3867649
1.765 -0.40328342 -0.057213031 6884099
1.786 -0.28103381 -0.0058947443 6753798
1.812 -0.33785576 0.008673884 9207912
1.8329999 -0.3180638 -0.10092525 3539714
1.796 -0.12871553 -0.014642776 7605251
1.796 -0.13452277 -0.037882846 7213848
1.755 -0.16549982 -0.076759718 3932673
1.775 -0.2620849 -0.011600521 7279368
1.765 -0.21209885 -0.011535167 8000779
1.806 -0.13235199 -0.06730561 4850690
1.801 -0.10286855 -0.014683541 4665628
1.9119999 -0.3348631 -0.11146028 2818819
1.786 -0.2868087 -0.0087835779 7080196
1.77 -0.34433258 -0.057375107 7539456
1.791 -0.22101432 0.0085733589 5906714
1.877 -0.11631319 0.015057084 2891283
1.76 -0.16881675 -0.017196048 8063500
1.77 -0.35005575 -0.077415787 6489600
1.77 -0.22128445 -0.045923293 7079425
1.966 -0.12818523 -0.079628415 2886145
1.86 -0.35582685 -0.11444599 2818560
1.765 -0.37474841 -0.051503297 7996672
1.781 -0.23417714 -0.043327946 7212292
1.755 -0.14563848 -0.076759718 3212288
1.972 -0.26885551 -0.10857861 2621441
1.929 -0.12889144 -0.071889549 3868160
1.755 -0.21089716 -0.062566265 5833728
1.822 -0.13941586 0.01461588 8205355
1.918 -0.28940105 -0.10560536 2818560
1.765 -0.15217534 -0.062922768 5309185
1.751 -0.30383509 -0.045430329 7474953
1.8380001 -0.39024791 -0.12201115 2228993
1.77 -0.38153318 -0.091730557 5898752
1.781 -0.31767881 -0.014520481 7474184
1.781 -0.42133608 -0.10670436 3671552
1.801 -0.36201006 -0.011770445 8527125
1.775 -0.2362579 -0.054666143 6686720
1.812 -0.11814427 -0.029427666 5902089
1.76 -0.20865259 -0.065591291 5703170
1.77 -0.16119118 -0.045923293 6818563
1.791 -0.2934027 -0.0030143259 5836296
1.791 -0.2847161 -0.081231199 5047040
1.8660001 -0.2634542 -0.096705772 3670530
1.755 -0.16266249 -0.073921032 4325888
1.781 -0.26872957 -0.051970184 6948871
1.8279999 -0.39108005 -0.1154338 3671298
1.791 -0.42080626 -0.1217881 1901568
1.806 -0.35717553 -0.0088819386 7738638
1.822 -0.3456116 0.0028276267 5648413
1.751 -0.30949682 -0.051094774 7212294
1.822 -0.11879628 -0.035484198 5771017
1.755 -0.19103582 -0.068243645 5178880
1.751 -0.19060041 -0.019940335 8001551
1.791 -0.22970094 0.0085733589 4922125
1.775 -0.3510446 -0.048924059 7932416
1.801 -0.17566112 0.014447421 6102551
1.8279999 -0.092589304 -0.03560105 6895915
1.822 -0.38685074 0.01461588 3481104
1.765 -0.31767839 -0.074342228 5505792
1.812 -0.38179806 -0.10563077 4653826
1.796 -0.10258296 -0.023357801 4989452
1.822 -0.36328554 0.0028276267 7146240
1.781 -0.31767881 -0.086539142 4457217
1.77 -0.155468 -0.080278739 3146753
1.755 -0.17401183 -0.065404952 5374976
1.786 -0.23194712 -0.0087835779 7674126
1.806 -0.42725039 -0.020566672 4788233
1.755 -0.42369717 -0.068243645 5444613
1.8279999 -0.39108005 -0.11839056 2884099
1.791 -0.40053752 -0.014602011 3870216
1.786 -0.25215927 0.0027717571 5706756
1.786 -0.34455773 -0.092559762 5177600
1.786 -0.2637091 -0.075226754 5374720
1.817 -0.25359848 -0.088288389 3801856
1.755 -0.31587851 -0.042695422 7541259
1.791 -0.43238842 -0.026189696 4657674
1.781 -0.15931356 -0.026043467 8658460
1.781 -0.35511062 -0.089419886 6161152
1.77 -0.16405277 -0.020156706 8064272
1.801 -0.3678335 -0.0059442525 7540228
1.775 -0.2534759 -0.014471563 7738890
1.822 -0.39568773 0.011668817 2496777
1.791 -0.26444736 0.0056764381 4397061
1.765 -0.17500333 -0.040083833 7146501
1.8940001 -0.12349076 -0.067521654 3933955
1.786 -0.14243612 -0.060782585 5375232
1.812 -0.26754808 -0.090976328 3932160
1.812 -0.37593907 0.0028121073 6623746
1.755 -0.20238516 -0.056888878 6161664
1.775 -0.39121997 -0.094860725 5243392
1.775 -0.26495457 -0.025955729 7673095
1.775 -0.37687162 -0.031697813 8259328
1.8380001 -0.36350423 0.014744231 5323053
1.77 -0.30999357 -0.025882615 7276545
1.822 -0.38979641 0.01461588 3153424
1.822 -0.21600285 -0.088531338 3670528
1.796 -0.34648696 -0.098888025 4719104
1.775 -0.15877685 -0.011600521 7735303
1.765 -0.38330889 -0.048648432 7670528
1.791 -0.316567 -0.0030143259 5316372
1.791 -0.13125272 -0.017498933 7997958
1.791 -0.38316432 -0.098612726 5308672
1.77 -0.39011794 -0.043060336 7146242
1.775 -0.37687162 -0.034568854 8325120
1.812 -0.14450964 0.008673884 7279885
1.76 -0.42490429 -0.091212302 3738114
1.755 -0.3754625 -0.068243645 7472643
1.86 -0.3167347 -0.10241188 3474178
1.781 -0.39542177 -0.028924214 7014402
1.781 -0.25433272 -0.051970184 6818053
1.76 -0.3765322 -0.057050955 8457221
1.77 -0.3929795 -0.043060336 6884097
1.801 -0.38239199 -0.00011806005 5378820
1.985 -0.1230057 -0.070765831 3148547
1.806 -0.4038921 -0.11404455 2687744
1.8380001 -0.33081749 -0.1041735 3015168
1.786 -0.30702087 -0.0058947443 5704970
1.855 -0.19892205 -0.087134376 3474432
1.781 -0.32055819 -0.086539142 4457216
1.791 -0.40922412 -0.026189696 6032898
1.77 -0.21556129 -0.074552834 4916224
1.765 -0.42896491 -0.045793567 4592132
1.796 -0.33777609 -0.011737767 6558215
1.775 -0.4227863 -0.10347385 3672064
1.796 -0.27389649 -0.081457973 5112833
1.781 -0.25433272 -0.0029974955 7082506
1.844 -0.1202307 -0.044860601 5114369
1.801 -0.13198557 -0.046727598 6555392
1.791 -0.31077594 -0.00011740452 3804936
1.76 -0.20011634 -0.039970279 7408131
1.755 -0.19103582 -0.045534112 7276547
1.849 -0.10262088 0.0058602644 1119245
1.806 -0.41557124 -0.0088819386 1378822
1.76 -0.29401511 -0.054204177 6751744
1.77 -0.37581 -0.045923293 8129537
1.751 -0.30383509 -0.053926997 6883329
1.791 -0.37447771 -0.017498933 7670528
1.775 -0.15877685 -0.014471563 7801096
1.76 -0.37368679 -0.054204177 8259584
1.77 -0.34433258 -0.045923293 7736837
1.796 -0.14904086 -0.00011773228 7867401
1.791 -0.14573041 -0.017498933 8064521
1.775 -0.15016785 -0.057537183 5572359
1.755 -0.18252382 -0.071082339 4719872
1.786 -0.43118128 -0.031894248 4984838
1.775 -0.32234794 -0.020213645 7342597
1.77 -0.36722526 -0.080278739 7144706
