# .PCD v0.7 - Point Cloud Data file format
VERSION 0.7
FIELDS x y z rgba
SIZE 4 4 4 4
TYPE F F F U
COUNT 1 1 1 1
WIDTH 1210
HEIGHT 1
VIEWPOINT 0 0 0 1 0 0 0
POINTS 1210
DATA ascii
2.194 -0.07210964 0.23052616 5441539
2.2260001 -0.06596376 0.26989374 4195845
2.164 0.02333775 0.32538086 4328709
2.1559999 -0.01857616 0.27186841 5114116
2.1270001 0.047009982 0.30949631 3542784
2.194 -0.0011682127 0.32634291 3802114
2.1270001 0.019499971 0.28197315 5901320
2.098 0.039585304 0.27473518 4784901
2.142 -0.018455535 0.24585041 5507844
2.2260001 -0.019179283 0.33470324 2492164
2.1789999 -0.064570993 0.15845996 3346955
2.1270001 0.064203739 0.27165195 2625290
2.194 -0.065015495 0.22342862 5442051
2.3 0.021086005 0.37931195 2231560
2.187 -0.075415328 0.22625321 5179394
2.2179999 -0.019110354 0.32632518 3212548
2.1559999 -0.088288881 0.18817312 5179144
2.2909999 -0.17900671 0.19995575 2231560
2.2019999 -0.11153263 0.14588572 1575174
2.1270001 0.009183716 0.27509236 5376005
2.21 -0.13337547 0.13926643 1771781
2.194 -0.11822157 0.1453557 1770240
2.1789999 -0.099799201 0.16198447 3345415
2.2019999 0.06646762 0.35602653 1118992
2.2260001 -0.087556601 0.14387523 2691594
2.187 -0.032986276 0.27577746 4916483
2.142 0.047341507 0.25277975 1904396
2.2420001 -0.16067941 0.21018472 2688514
2.266 -0.063485622 0.30406541 2295555
2.1789999 -0.10332202 0.16198447 3672840
2.171 -0.043274608 0.21055169 3737861
2.164 0.04432917 0.33238137 3020551
2.1559999 -0.091774523 0.19863503 5113862
2.234 -0.080647789 0.26725024 3409668
2.2420001 -0.0048184441 0.35524106 1836032
2.1789999 -0.12798177 0.19018053 4393223
2.234 -0.15288259 0.16968657 4458757
2.2019999 -0.14001267 0.20287307 3868162
2.1559999 0.068564743 0.32417798 4932907
2.1789999 -0.064570993 0.20780306 4983811
2.2260001 -0.10195182 0.25909215 2557957
2.21 -0.13694841 0.23935659 1114882
2.142 0.061193515 0.31860828 4141335
2.1559999 0.023251474 0.31720337 4591368
2.194 0.034302499 0.35118431 3149324
2.2579999 -0.15817556 0.18611868 3803397
2.1559999 -0.022061797 0.24745728 5442821
2.1559999 -0.074346341 0.17771119 4070678
2.187 -0.078951083 0.16257918 2690062
2.2019999 -0.065252565 0.23492844 5507332
2.1559999 0.026737111 0.32069069 4328709
2.1199999 0.02286323 0.27761608 5573127
2.171 -0.064333931 0.20352855 4720898
2.2739999 -0.17767842 0.16904667 2429452
2.105 0.0022823599 0.23819889 3868679
2.1559999 0.051136564 0.2544319 1969932
2.1489999 0.016227344 0.29879358 5115656
2.25 -0.10305104 0.12722971 1643016
2.1789999 0.079864651 0.31706277 1511434
2.164 0.0093434704 0.31137988 4458757
2.1340001 -0.018386608 0.20005985 1838854
2.187 -0.032986276 0.26870257 4851971
2.2019999 0.020187559 0.34890312 3673865
2.2909999 -0.17900671 0.19995575 2231560
2.1789999 -0.0046830466 0.29944023 4786182
2.2260001 -0.15233511 0.22308685 1771524
2.1129999 0.060365029 0.28011718 2034953
2.1559999 0.023251474 0.30674145 5182476
2.194 -0.040185995 0.22697739 5637891
2.2019999 -0.14001267 0.19931135 3802368
2.1340001 -0.03563695 0.1897047 1444613
2.105 0.056733299 0.28586626 2623750
2.2260001 0.056395646 0.36350748 1644045
2.2420001 -0.15343006 0.16304141 4197127
2.2019999 -0.14001267 0.1779411 4523269
2.1129999 0.026203856 0.26302841 4457991
2.1789999 -0.0011602258 0.31353825 4457991
2.1129999 0.0022910337 0.23226866 1770496
2.1129999 0.0022910337 0.25961068 5441798
2.234 -0.091483012 0.26363677 3016196
2.142 -0.018455535 0.25277975 5507842
2.1270001 0.009183716 0.27509236 5376005
2.234 -0.095094748 0.14077882 2822667
2.1129999 0.015955504 0.25961068 4982793
2.1559999 -0.05343252 0.16376197 2429962
2.142 0.0057854797 0.21466848 1838095
2.21 -0.14409429 0.225058 1771524
2.1559999 0.019765837 0.31371605 4788233
2.2019999 0.020187559 0.35246482 3083270
2.1270001 -0.045836307 0.17188044 2231560
2.1559999 0.030222746 0.32069069 4198406
2.1270001 -0.011448792 0.220046 1442816
2.187 -0.011771749 0.30407703 4260865
2.25 -0.10305104 0.12722971 1643016
2.1559999 -0.098745793 0.1846858 5507080
2.1340001 -0.014936539 0.21041501 1312261
2.21 -0.019041426 0.31799889 3671557
2.171 -0.092413023 0.16490132 3410695
2.2179999 -0.087241933 0.2509858 3803396
2.2579999 -0.045008782 0.31394878 2557187
2.194 -0.040185995 0.22342862 5244419
2.234 -0.15288259 0.17691351 4130051
2.098 0.042977169 0.26455471 2164486
2.194 -0.079203784 0.23407494 5310212
2.2179999 -0.062140822 0.26174858 4326917
2.194 -0.10758035 0.24117246 3147271
2.25 -0.088500604 0.1345084 2102796
2.194 -0.043733068 0.2731114 4720387
2.164 -0.074622206 0.20287232 4655875
2.1559999 -0.10223143 0.19863503 5048582
2.2179999 0.088465817 0.31197482 1838603
2.1129999 0.015955504 0.24252191 2295045
2.2019999 -0.043892533 0.24917528 5573127
2.21 0.081000857 0.29297632 3542029
2.164 -0.0046508089 0.28687817 4982530
2.1789999 -0.068093814 0.15845996 3937552
2.142 0.064656518 0.31514362 2167296
2.194 -0.11822157 0.23762371 2557958
2.283 -0.17838162 0.1807939 2363401
2.1199999 0.0091534927 0.22960904 920322
2.234 -0.15288259 0.14800577 3018508
2.21 -0.051197875 0.25008056 5310984
2.2420001 0.045926984 0.36612028 1575936
2.283 -0.071343817 0.30634657 1574402
2.105 0.0022823599 0.24841332 5048836
2.2019999 -0.0082924822 0.32753286 3474691
2.234 -0.01924821 0.34674653 1312000
2.1489999 -0.018515848 0.26055777 5049603
2.283 0.094749331 0.34327382 2235153
2.2179999 -0.015524481 0.32632518 3277828
2.194 -0.036638927 0.23762371 5637377
2.1129999 -0.0045412011 0.23568641 4392710
2.171 -0.07486359 0.16490132 2166280
2.1559999 -0.025547432 0.24396998 5901062
2.171 -0.09592291 0.16490132 3541254
2.1559999 -0.1092027 0.19166042 5113603
2.187 0.083693616 0.33591408 2958878
2.1340001 0.043714624 0.3105149 3870468
2.266 -0.063485622 0.30406541 2295555
2.105 -0.0045240079 0.24841332 5245442
2.2739999 0.094375812 0.33088607 1380364
2.1129999 0.012539386 0.26302841 5047558
2.164 -0.074622206 0.20287232 4655875
2.171 -0.032744948 0.25269049 5442052
2.1789999 0.0058854152 0.33116078 3802883
2.1789999 -0.12445895 0.20780306 3999746
2.1489999 0.0058043865 0.28836563 5245189
2.194 -0.13240986 0.15600201 4524037
2.21 -0.086927265 0.15356503 3153426
2.171 -0.060824044 0.19650543 3868160
2.2019999 0.084267646 0.34534141 2433050
2.1559999 -0.10223143 0.20212233 4916996
2.25 -0.09577582 0.1345084 2299148
2.266 -0.16972639 0.17944764 3083272
2.2579999 -0.16182609 0.18611868 3541254
2.2019999 -0.12577266 0.24205185 1574406
2.25 -0.084863 0.1345084 1840395
2.1559999 -0.011604887 0.27535573 5441798
2.1489999 0.026650302 0.30574554 5511182
2.2179999 -0.11234304 0.13618298 1575174
2.1129999 0.022787739 0.24935742 2228992
2.098 0.046369039 0.28152215 4787209
2.142 0.02310049 0.23545644 1379335
2.171 -0.08539325 0.21055169 5114375
2.194 -0.068562567 0.15600201 3150605
2.2420001 -0.15705474 0.19930549 3540224
2.1489999 0.033598941 0.24665385 1837574
2.2260001 -0.1451375 0.14027469 2232586
2.194 -0.12176864 0.23052616 2754309
2.164 -0.029140798 0.21687329 3408385
2.2420001 -0.033815835 0.31897697 2819584
2.25 -0.16125275 0.15998383 3149065
2.3080001 0.013696594 0.3806313 1771781
2.194 -0.12886278 0.14890447 3539712
2.1199999 0.040000401 0.29819053 5116936
2.2579999 -0.052309863 0.3066442 2623234
2.1270001 -0.011448792 0.22348639 2294785
2.2179999 -0.022696227 0.3155624 3671810
2.1340001 -0.018386608 0.20351157 1641476
2.164 -0.11660504 0.19587183 4851205
2.1559999 0.0093089296 0.21955885 2100750
2.2019999 -0.079492584 0.15657085 2886923
2.21 -0.06191669 0.2322073 5506817
2.21 -0.011895549 0.32157353 3737093
2.1559999 -0.077831976 0.18119849 4592910
2.2260001 -0.08035899 0.14387523 1906188
2.2739999 -0.0012108093 0.37134591 1050370
2.2260001 -0.06596376 0.27349424 4064773
2.2019999 -0.12577266 0.14232402 1705220
2.1129999 0.056948911 0.27328169 2166280
2.187 0.0023712688 0.33591408 3278080
2.234 -0.15288259 0.19136739 3802883
2.2260001 -0.10195182 0.25909215 2557957
2.2019999 -0.040332526 0.25273699 5573125
2.2179999 -0.022696227 0.3155624 3671810
2.2179999 -0.051383205 0.24381064 5375746
2.164 -0.036137938 0.21337305 3671811
2.2260001 -0.07676018 0.14387523 1775372
2.2019999 -0.12933265 0.24205185 1312261
2.171 0.069041774 0.34047967 3948080
2.187 0.041264568 0.34298897 3150856
2.25 -0.09577582 0.1345084 2299148
2.25 -0.16125275 0.15270513 2756877
2.164 -0.10960791 0.17137012 4654594
2.171 -0.088903137 0.2210864 4917250
2.2260001 -0.073161379 0.26989374 3737093
2.187 -0.12845165 0.16611663 4459268
2.1789999 -0.085707918 0.22190107 4983043
2.21 -0.090500198 0.14999038 2887946
2.2579999 -0.16912718 0.16785724 2952713
2.1789999 -0.089230739 0.22542559 5048836
2.164 0.037332028 0.33238137 3740683
2.187 -0.12491588 0.16257918 4590341
2.2019999 -0.047452539 0.22780502 5638148
2.1559999 0.040679656 0.32417798 3477511
2.171 0.076061547 0.28780615 3279628
2.105 0.015895095 0.25522295 4787211
2.1270001 0.009183716 0.27509236 5376005
2.3169999 0.0025122222 0.37836784 1378052
2.1559999 -0.046461251 0.20212233 2884864
2.2019999 -0.072372571 0.23849015 5113603
2.2579999 0.002448251 0.3650808 1705731
2.1199999 0.026290664 0.27418703 5245191
2.194 0.0094730016 0.34408677 3081728
2.194 -0.10758035 0.14890447 1246466
2.1340001 0.040264558 0.25528738 1510921
2.098 0.036193438 0.27134168 4851207
2.194 -0.13240986 0.17019708 4459014
2.2179999 -0.14820176 0.1935844 3802883
2.2420001 -0.084561266 0.27183366 3081732
2.234 -0.11315345 0.2600233 1573893
2.1789999 -0.12445895 0.18665601 4589577
2.1789999 -0.03286561 0.26419517 4917764
2.194 -0.011809426 0.30859908 4195331
2.194 -0.040185995 0.26956263 4720385
2.1199999 0.0091534927 0.22960904 920322
2.234 -0.044530388 0.3033849 3081730
2.2019999 -0.090172596 0.24205185 4065028
2.2420001 -0.15705474 0.20655832 3343875
2.283 -0.17838162 0.18448661 2166022
2.164 -0.018645089 0.27987769 5310212
2.2019999 -0.047452539 0.22780502 5638148
2.187 0.083693616 0.30053958 2559498
2.1129999 -0.0011250837 0.24252191 4851207
2.1489999 0.050970536 0.32660145 2496258
2.2019999 0.0023875327 0.34534141 2885123
2.234 -0.073424309 0.27447715 3540484
2.1789999 -0.078662276 0.21485206 4852225
2.2739999 0.094375812 0.33088607 1380364
2.2579999 -0.092465818 0.13133436 1971723
2.1559999 -0.049946886 0.20212233 3606530
2.1340001 -0.018386608 0.21041501 1246209
2.2019999 -0.0011724724 0.338218 3212546
2.1489999 0.012753025 0.29531759 4852225
2.1199999 0.019435795 0.27761608 5704713
2.2179999 0.0059907534 0.35143828 2820100
2.1270001 0.019499971 0.23380758 985604
2.1559999 0.07553602 0.31371605 1642505
2.2420001 -0.07368724 0.28633928 2361089
2.2260001 -0.11994585 0.12947311 986633
2.1489999 -0.060207676 0.16670626 3875868
2.2179999 -0.065726697 0.25816098 4130051
2.1559999 -0.022061797 0.24396998 5835269
2.187 0.073086359 0.28285235 2952715
2.1489999 0.019701663 0.30226958 4721666
2.1340001 -0.028736813 0.18280126 1773580
2.2179999 0.059778839 0.36220106 1645076
2.1199999 0.06056501 0.30161962 2690306
2.21 -0.065489627 0.15356503 2036236
2.142 -0.053085558 0.16616325 2561037
2.1340001 0.026464282 0.28980458 5770504
2.266 -0.09279342 0.28573924 1312259
2.164 -0.095613629 0.20637256 5114375
2.1340001 -0.045987155 0.17934954 2034694
2.266 -0.16606291 0.17578241 3476488
2.164 0.002346331 0.30087915 4917768
2.2019999 -0.14001267 0.19931135 3802368
2.187 -0.043593537 0.26162767 4983043
2.25 -0.16125275 0.16362318 3345415
2.1489999 -0.018515848 0.23970188 5703170
2.171 -0.029235061 0.22810952 5506564
2.2179999 -0.05496908 0.27968651 4327169
2.1129999 0.03303609 0.27669942 5112837
2.234 -0.091483012 0.14077882 2757641
2.1199999 0.063992441 0.27761608 2232075
2.2739999 0.094375812 0.31985155 1576714
2.1340001 -0.014936539 0.23457704 5374978
2.1129999 0.060365029 0.29720595 2624259
2.1789999 -0.12445895 0.19370502 4589063
2.25 -0.16125275 0.19637732 3409666
2.105 0.049926933 0.26884219 1902597
2.171 -0.092413023 0.21757482 4917250
2.142 -0.035770547 0.19734518 1378306
2.142 0.0092484821 0.28742632 5310466
2.2909999 -0.064186037 0.32224271 984324
2.2260001 -0.11274824 0.12947311 1511948
2.1340001 -0.025286745 0.18625298 1904650
2.2179999 -0.094413675 0.14694574 2558727
2.2019999 -0.09729261 0.14944743 1508864
2.1199999 0.0091534927 0.2638998 5244421
2.283 -0.17838162 0.1807939 2363401
2.2579999 -0.055960406 0.3066442 2295298
2.2260001 0.056395646 0.36350748 1644045
2.164 -0.095613629 0.21337305 4851457
2.187 -0.0047002397 0.30761448 4457476
2.105 0.019298278 0.24841332 2950916
2.187 -0.0082359938 0.30761448 4260867
2.142 0.0092484821 0.22159781 1903885
2.142 0.054267511 0.31514362 2887936
2.1789999 0.079864651 0.31001374 1313288
2.1129999 0.03303609 0.27669942 5112837
2.164 0.019839181 0.32538086 4328709
2.1489999 -0.056733359 0.18408617 1771009
2.234 -0.10592997 0.13716535 2232075
2.1789999 -0.12798177 0.19018053 4393223
2.1270001 0.019499971 0.28541353 5835782
2.2179999 -0.0908278 0.2509858 3672068
2.187 -0.12491588 0.16611663 4459268
2.142 -0.025381541 0.20080984 1641476
2.1789999 -0.071616635 0.15845996 3410954
2.187 -0.093094096 0.16257918 3348495
2.1489999 0.068342134 0.31964949 4340261
2.2179999 -0.14461589 0.1935844 3803137
2.21 -0.065489627 0.15356503 2036236
2.1199999 0.026290664 0.27761608 5441541
2.142 0.0023224773 0.28049701 5573384
2.187 -0.071879573 0.22271577 5310980
2.194 -0.040185995 0.22342862 5244419
2.194 -0.033091854 0.28020892 4850692
2.2179999 -0.14461589 0.16847128 4589314
2.187 -0.078951083 0.16257918 2690062
2.171 -0.064333931 0.19650543 4130817
2.2579999 -0.15817556 0.19342326 3672068
2.21 -0.058343753 0.2536552 4786439
2.2179999 -0.14820176 0.15770851 4196872
2.234 -0.098706491 0.1335519 2495757
2.25 -0.10668864 0.27280363 1246466
2.164 -0.078120776 0.17137012 5719355
2.1559999 0.0093089296 0.21955885 2100750
2.2420001 -0.15343006 0.16666782 4393221
2.1489999 0.023175983 0.29879358 5115654
2.1559999 -0.046461251 0.19863503 2228992
2.2739999 -0.17032559 0.19847201 2885893
2.21 -0.022614364 0.30727494 3736576
2.105 0.029507829 0.26543739 4654853
2.2420001 -0.07006257 0.28633928 2885377
2.2179999 -0.14103001 0.14335816 2755849
2.25 -0.15761514 0.15270513 3149324
2.1789999 0.083387472 0.31706277 1182985
2.1789999 -0.12445895 0.179607 4524039
2.1489999 0.057919174 0.32660145 4932647
2.21 -0.072635509 0.2536552 4065541
2.2019999 -0.040332526 0.28123066 4785412
2.194 0.080414429 0.294404 3345676
2.1789999 -0.071616635 0.15845996 3410954
2.21 -0.083354324 0.25008056 4065028
2.1270001 0.064203739 0.27165195 2625290
2.1270001 -0.035520051 0.18220162 2100746
2.2420001 -0.0048184441 0.35524106 1836032
2.1559999 -0.074346341 0.17422388 5257521
2.164 0.002346331 0.30087915 4917768
2.1489999 -0.056733359 0.18408617 1771009
2.164 -0.071123637 0.1853711 4395021
2.2179999 -0.033453844 0.30121204 3671298
2.1199999 0.02286323 0.23989627 1509638
2.2019999 -0.14001267 0.2171199 2819584
2.2179999 -0.14820176 0.1935844 3802883
2.25 -0.15761514 0.17090188 4131334
2.1129999 0.026203856 0.26302841 4457991
2.21 -0.14052135 0.15713967 4524550
2.171 0.0093736947 0.32292181 4327428
2.1489999 -0.046310402 0.19451413 1574656
2.1789999 -0.015251508 0.29944023 4261378
2.266 -0.034177821 0.33338723 2163970
2.234 -0.026471689 0.32506573 2950146
2.21 -0.14766721 0.21433406 2884612
2.187 0.062479094 0.34652641 2829599
2.187 -0.086022586 0.2333281 4786178
2.2019999 -0.12933265 0.24205185 1312261
2.2420001 -0.033815835 0.31535056 3015936
2.171 0.033942904 0.24215579 1642507
2.194 -0.11112742 0.24117246 2884870
2.187 -0.078951083 0.16257918 2690062
2.283 0.02831207 0.37650833 2099974
2.2739999 -0.17400201 0.1874375 2558981
2.142 -0.04269655 0.19041586 1247749
2.194 -0.043733068 0.22697739 5769477
2.1270001 0.064203739 0.27165195 2625290
2.164 -0.088616483 0.21337305 4917250
2.164 0.040830601 0.24487525 1708300
2.2739999 -0.0048872177 0.37134591 1050629
2.1340001 -0.018386608 0.20696329 1509379
2.21 -0.047624934 0.24293125 5572355
2.2420001 -0.022941813 0.33348259 2754307
2.098 0.036193438 0.27473518 5178630
2.1270001 -0.0045712893 0.21316519 1444364
2.2179999 -0.044211462 0.29762447 3409666
2.2420001 -0.080936588 0.27183366 3278082
2.2179999 0.0024048807 0.35502589 2230533
2.2739999 -0.060033344 0.30881706 1967361
2.2019999 0.06646762 0.35246482 1118990
2.171 -0.029235061 0.25269049 5507845
2.2579999 -0.16547664 0.16785724 3280135
2.105 0.036314197 0.28246146 6098703
2.171 -0.099432796 0.2210864 4655107
2.164 -0.067625068 0.18887134 3802884
2.1559999 0.033708382 0.32069069 4132870
2.25 -0.15761514 0.17090188 4131334
2.2179999 -0.065726697 0.26533616 4261638
2.164 0.012842041 0.31488013 4524550
2.164 0.03033489 0.33238137 4002056
2.2179999 -0.065726697 0.26533616 4261638
2.142 -0.004603527 0.27010304 5310982
2.1489999 -0.0011442521 0.28141367 5310982
2.1559999 0.044165291 0.3276653 3414028
2.25 -0.081225388 0.28008232 2623234
2.164 -0.067625068 0.1853711 3541513
2.2019999 -0.0047324775 0.3346563 3278341
2.2739999 0.094375812 0.32720789 1248778
2.1129999 0.022787739 0.25961068 4457993
2.2019999 -0.12577266 0.24205185 1574406
2.098 0.049760904 0.28152215 4066569
2.1559999 -0.1092027 0.18817312 5375494
2.2579999 -0.030406618 0.33586249 2229763
2.164 -0.11660504 0.19587183 4851205
2.2579999 -0.085164733 0.28838274 1443586
2.2019999 0.027307568 0.34890312 3410693
2.283 -0.089798614 0.29526839 919043
2.194 -0.036638927 0.28375769 4523010
2.105 0.049926933 0.26884219 1902597
2.2260001 -0.083957791 0.14387523 2233612
2.187 -0.12845165 0.15904173 4392962
2.2179999 -0.11234304 0.13259539 1707787
2.194 -0.043733068 0.23052616 5900549
2.098 0.039585304 0.26455471 3016711
2.1270001 0.064203739 0.27165195 2625290
2.1340001 -0.049437225 0.18625298 1574144
2.1199999 -0.0079836799 0.25018349 5245442
2.234 -0.091483012 0.26725024 2754309
2.194 0.048490785 0.34763554 3418130
2.164 0.072317727 0.32538086 2959380
2.1340001 -0.011486471 0.23802876 5244419
2.187 -0.075415328 0.15904173 3608593
2.21 -0.069062568 0.15356503 2429452
2.164 -0.067625068 0.19237158 4197125
2.1789999 -0.1174133 0.22542559 3212546
2.21 -0.06191669 0.23578195 5507332
2.2909999 -0.060482144 0.32594836 918531
2.194 -0.040185995 0.22342862 5244419
2.194 -0.04728014 0.21987985 4851457
2.1789999 -0.02581997 0.27829319 5244421
2.164 0.065320589 0.26587671 2165767
2.194 -0.13595693 0.17729463 4523269
2.234 -0.15288259 0.14800577 3018508
2.164 0.019839181 0.32538086 4328709
2.1129999 0.043284442 0.29378819 5051144
2.194 -0.11822157 0.15245324 3278341
2.187 -0.12491588 0.22271577 3081989
2.187 -0.12845165 0.22271577 2820100
2.171 -0.078373477 0.20704013 4787461
2.187 -0.12491588 0.16611663 4459268
2.194 -0.068562567 0.15600201 3150605
2.21 -0.06191669 0.23935659 5441798
2.283 -0.082416698 0.30265382 1180673
2.2579999 -0.16547664 0.16055267 2821642
2.1340001 -0.049437225 0.18625298 1574144
2.2739999 0.098052219 0.32352972 986887
2.1559999 -0.098745793 0.18119849 5507593
2.187 -0.086022586 0.2333281 4786178
2.171 0.0023539208 0.30536398 4523269
2.187 0.0023712688 0.33591408 3278080
2.2909999 0.043226849 0.38153335 1181954
2.105 0.043120563 0.28586626 5377288
2.2579999 -0.16547664 0.21533699 2033666
2.21 -0.14766721 0.21790871 2360836
2.1340001 -0.014936539 0.23802876 5506562
2.2909999 -0.064186037 0.32224271 984324
2.1789999 0.051682085 0.33820981 3155985
2.1789999 -0.03286561 0.26419517 4917764
2.187 -0.10723712 0.2333281 3737604
2.2739999 -0.17400201 0.1874375 2558981
2.25 -0.030298889 0.3310332 2492164
2.2179999 -0.0908278 0.14694574 2886920
2.1789999 0.079864651 0.31706277 1511434
2.187 -0.093094096 0.22979066 4720900
2.1559999 -0.081317611 0.19514772 4786439
2.164 -0.10610934 0.21337305 4458242
2.1129999 0.060365029 0.29720595 2624259
2.187 0.076622106 0.34298897 1841424
2.1559999 -0.095260158 0.20212233 4982276
2.25 -0.16125275 0.17090188 3869447
2.21 -0.14766721 0.225058 1378052
2.21 -0.13694841 0.23578195 1442818
2.2179999 -0.13385828 0.13618298 1509638
2.1559999 -0.074346341 0.17422388 5257521
2.2579999 -0.16182609 0.18611868 3541254
2.1559999 0.019765837 0.32069069 4328196
2.164 -0.11660504 0.20287232 4458242
2.194 -0.11822157 0.1453557 1770240
2.1559999 0.023251474 0.30674145 5182476
2.2420001 -0.10268463 0.26458085 2361349
2.1270001 -0.011448792 0.22348639 2294785
2.187 -0.12845165 0.21917832 3015937
2.2909999 0.043226849 0.38153335 1181954
2.283 -0.07872574 0.30265382 1377795
2.25 -0.092138216 0.27280363 2361091
2.164 -0.11310647 0.17487036 4917766
2.2739999 -0.17400201 0.18008117 2690567
2.2179999 0.088465817 0.33350036 1971468
2.1559999 0.051136564 0.25791919 1903885
2.1340001 -0.011486471 0.26219082 4918017
2.234 -0.048142131 0.29977143 3213316
2.1559999 -0.1092027 0.19166042 5113603
2.25 -0.16125275 0.16726252 3607558
2.2179999 -0.10158542 0.14335816 2362376
2.283 0.094749331 0.34327382 2235153
2.142 0.0057854797 0.21813314 1968909
2.164 -0.022143658 0.23087427 5048069
2.1340001 0.036814488 0.30361146 5051656
2.194 -0.13595693 0.17374586 4524037
2.1559999 -0.084803246 0.19166042 5113864
2.2579999 -0.16182609 0.18246639 3672070
2.2420001 -0.041065179 0.31172416 2884610
2.171 0.07255166 0.28429461 2821130
2.164 -0.11660504 0.17487036 4655623
2.2019999 -0.14001267 0.17437939 4654855
2.164 0.065320589 0.26937696 2691083
2.1340001 -0.0045863339 0.20696329 1707789
2.194 0.048490785 0.35118431 2957838
2.21 -0.14766721 0.225058 1378052
2.098 0.036193438 0.27473518 5178630
2.187 0.041264568 0.34298897 3150856
2.164 -0.095613629 0.17487036 4852234
2.1789999 -0.082185097 0.22190107 5179907
2.142 0.064656518 0.31860828 4010778
2.2739999 -0.17400201 0.20215018 2492934
2.142 0.047341507 0.25624439 1772810
2.187 -0.036522027 0.27224001 4851203
2.1270001 -0.035520051 0.17876123 2035723
2.2260001 -0.15233511 0.20868474 3474691
2.2579999 -0.16912718 0.16420496 2821899
2.194 -0.086297922 0.15600201 3286041
2.2260001 -0.12354466 0.25549161 1050117
2.1129999 0.056948911 0.26986393 1903621
2.1270001 0.012622468 0.27509236 5179398
2.2420001 -0.10268463 0.26458085 2361349
2.194 -0.029544784 0.294404 4130821
2.2179999 -0.14461589 0.17564645 4589062
2.1270001 -0.008010041 0.22692679 2623234
2.283 0.098440289 0.33958107 1577995
2.1789999 0.03054516 0.33820981 3739143
2.187 -0.082486838 0.15904173 2625037
2.1489999 -0.015041529 0.26750973 4917248
2.105 0.012491911 0.24500851 3671559
2.21 -0.09764608 0.14641573 1902595
2.1129999 -0.0011250837 0.25277516 5245442
2.266 -0.16606291 0.19044332 3279109
2.164 0.01634061 0.22387378 1838603
2.266 -0.16606291 0.17944764 3344902
2.1559999 -0.10571706 0.20212233 4720387
2.1340001 -0.045987155 0.18625298 1639938
2.142 0.0092484821 0.28742632 5310466
2.1340001 0.057514898 0.26219082 2166539
2.2260001 -0.1487363 0.17988051 4326917
2.21 -0.054770812 0.23578195 5638403
2.283 -0.063961901 0.31003928 1705216
2.2179999 -0.10517129 0.2509858 2885125
2.164 -0.11660504 0.20287232 4458242
2.164 -0.025642227 0.23787476 5702144
2.21 -0.13337547 0.14284109 2426884
2.105 0.032911014 0.25862777 2425856
2.2019999 -0.043892533 0.24561356 5638148
2.1270001 0.029816225 0.28885394 5770252
2.1129999 0.019371621 0.24252191 1771011
2.142 0.0092484821 0.28396168 5573638
2.171 0.0023539208 0.31238714 4524039
2.164 -0.088616483 0.21337305 4917250
2.1559999 0.0093089296 0.29627955 4786178
2.2420001 -0.048314527 0.30809775 2622980
2.21 -0.086927265 0.15356503 3153426
2.105 0.0056855436 0.2416037 4064777
2.1559999 -0.10571706 0.20909694 4786693
2.1489999 -0.032413125 0.21189404 3343105
2.142 -0.018455535 0.25277975 5507842
2.2019999 -0.14001267 0.1815028 4392710
2.171 0.033942904 0.23864423 1446155
2.1489999 -0.015041529 0.26750973 4917248
2.1489999 0.026650302 0.30574554 5511182
2.1559999 -0.077831976 0.17771119 4266770
2.164 -0.074622206 0.19237158 4590343
2.194 -0.036638927 0.24472123 5637890
2.1559999 -0.10223143 0.20560963 4917766
2.21 -0.051197875 0.23935659 5572355
2.1559999 -0.088288881 0.19166042 5310214
2.21 -0.047624934 0.24293125 5572355
2.142 0.068119518 0.28049701 2493451
2.2260001 -0.019179283 0.33470324 2492164
2.2179999 0.0024048807 0.35502589 2230533
2.2260001 -0.15233511 0.2158858 2622723
2.164 -0.074622206 0.19237158 4590343
2.171 0.012883581 0.32994497 4197125
2.1489999 0.016227344 0.30226958 4458753
2.21 -0.047624934 0.25008056 5441800
2.2579999 -0.055960406 0.31029648 1967618
2.1559999 -0.060403794 0.16376197 4270367
2.1559999 -0.10223143 0.20212233 4916996
2.1129999 0.053532794 0.26986393 1837574
2.234 -0.02285995 0.3286792 3081732
2.105 0.036314197 0.25862777 1769984
2.1559999 -0.10223143 0.18817312 5507334
2.3080001 0.0099652177 0.37689814 1705731
2.142 -0.032307543 0.20427451 1770240
2.1789999 0.037590802 0.34173432 3149574
2.234 -0.10592997 0.1335519 2233100
2.1129999 0.022787739 0.26302841 4785929
2.1559999 -0.049946886 0.19863503 2884864
2.187 -0.036522027 0.25809023 5245187
2.1340001 0.026464282 0.24148048 1641224
2.2179999 -0.044211462 0.29044929 3933442
2.21 -0.011895549 0.32514817 3474691
2.187 -0.12491588 0.22271577 3081989
2.164 -0.022143658 0.23787476 5702144
2.105 -0.0045240079 0.24841332 5245442
2.1340001 -0.0045863339 0.20696329 1707789
2.3 0.021086005 0.37931195 2231560
2.1789999 0.083387472 0.31001374 1247495
2.194 -0.086297922 0.15600201 3286041
2.164 0.065320589 0.26587671 2165767
2.1789999 -0.1174133 0.22542559 3212546
2.2179999 -0.10517129 0.2545734 2622980
2.1559999 -0.098745793 0.19514772 5376775
2.164 -0.071123637 0.18187085 4003604
2.187 -0.13198739 0.1873413 4196614
2.2420001 -0.066437893 0.28633928 3278593
2.164 -0.074622206 0.17137012 5786177
2.2179999 -0.065726697 0.26174858 4261638
2.1129999 0.029619973 0.27328169 5179398
2.234 -0.15288259 0.20582126 3671811
2.2260001 -0.12354466 0.25189108 1312262
2.105 0.0022823599 0.24500851 4851207
2.194 -0.04728014 0.21987985 4851457
2.1129999 0.043284442 0.29037043 5313033
2.164 0.01634061 0.32188064 4328196
2.171 0.07255166 0.34047967 1513227
2.2739999 -0.17032559 0.19479384 2886406
2.164 -0.0081493789 0.28687817 4916737
2.2579999 -0.030406618 0.34316707 1442818
2.164 0.04432917 0.33238137 3020551
2.2179999 -0.094413675 0.2545734 3213316
2.105 0.0056855436 0.24841332 4786180
2.1340001 0.029914351 0.29325628 5639947
2.171 -0.11347235 0.21406326 4130819
2.25 -0.023023674 0.34559059 1508864
2.194 -0.036638927 0.24472123 5637890
2.194 -0.082750849 0.15600201 3414806
2.2019999 0.027307568 0.35246482 3280135
2.187 0.0023712688 0.33945152 3147523
2.1270001 0.0023062134 0.26821154 5376005
2.2739999 -0.074738979 0.29778254 1967618
2.187 -0.071879573 0.22271577 5310980
2.1340001 -0.042537086 0.18625298 1771781
2.1340001 -0.025286745 0.1897047 1969930
2.1129999 0.012539386 0.26302841 5047558
2.1340001 -0.032186881 0.1897047 1707271
2.194 -0.13240986 0.16664831 4328196
2.1489999 0.012753025 0.29531759 4852225
2.1559999 -0.077831976 0.17422388 5059113
2.1340001 -0.028736813 0.18625298 2035723
2.1340001 0.029914351 0.24148048 1904396
2.1789999 0.079864651 0.32763627 2366228
2.171 -0.029235061 0.27024832 4917250
2.164 -0.074622206 0.1853711 4722188
2.21 -0.10121901 0.24293125 3671811
2.25 -0.084863 0.1345084 1840395
2.1129999 -0.0011250837 0.25619292 5245955
2.1340001 -0.021836676 0.20005985 1707268
2.2019999 -0.14001267 0.16013256 4458755
2.105 0.029507829 0.26884219 4916998
2.194 -0.086297922 0.15600201 3286041
2.098 0.05315277 0.28491566 3608074
2.2579999 -0.16182609 0.18611868 3541254
2.283 -0.045507107 0.32850289 1574656
2.2260001 -0.1487363 0.15467681 3869449
2.1559999 -0.074346341 0.17422388 5257521
2.266 -0.16606291 0.18311286 3344902
2.171 -0.088903137 0.17192446 4263437
2.164 -0.095613629 0.20987281 5048582
2.1340001 -0.032186881 0.18625298 1969930
2.194 -0.043733068 0.23407494 5637377
2.2579999 -0.066912025 0.29568732 2557441
2.1559999 -0.081317611 0.17771119 4199181
2.21 -0.0047496706 0.34302142 2556930
2.283 -0.056579985 0.32481018 1115652
2.1559999 -0.077831976 0.17422388 5059113
2.283 0.087367415 0.29526839 2492935
2.1559999 -0.0011479793 0.28581762 5179396
2.2579999 -0.15817556 0.17516182 4197127
2.194 -0.12176864 0.23762371 2164486
2.1340001 -0.0080364021 0.20351157 1970189
2.171 -0.060824044 0.19650543 3868160
2.1489999 -0.039361764 0.1979901 1574402
2.1489999 -0.056733359 0.17365822 1837317
2.234 -0.080647789 0.26725024 3409668
2.25 -0.092138216 0.13814774 2429705
2.2179999 -0.11234304 0.13259539 1707787
2.2179999 -0.033453844 0.30121204 3671298
2.194 -0.11822157 0.14890447 2294016
2.1270001 0.0023062134 0.26821154 5376005
2.1559999 -0.10571706 0.17422388 4982276
2.21 -0.051197875 0.26795378 4589314
2.1559999 0.0093089296 0.29976684 4786693
2.164 0.04432917 0.33238137 3020551
2.1270001 -0.008010041 0.23036718 3540225
2.25 -0.023023674 0.34922993 1312513
2.2179999 -0.14820176 0.1612961 4393221
2.164 -0.0046508089 0.28687817 4982530
2.194 0.069773212 0.2731114 2625290
2.187 0.0023712688 0.33945152 3147523
2.1340001 0.026464282 0.24148048 1641224
2.1789999 -0.036388431 0.22190107 5047812
2.283 -0.012288478 0.36912289 787458
2.1129999 0.022787739 0.25619292 3933189
2.1789999 -0.11389048 0.15845996 4065286
2.21 -0.086927265 0.14999038 2953224
2.171 -0.015195514 0.28780615 4720385
2.2579999 -0.16182609 0.19342326 3475461
2.2179999 -0.11592891 0.2509858 1901829
2.1789999 0.03054516 0.34173432 3673097
2.194 0.013020072 0.34408677 3541764
2.1340001 0.050614763 0.25873908 1707789
2.1340001 0.029914351 0.29325628 5639947
2.2579999 -0.015804455 0.35777622 1181443
2.25 -0.15761514 0.15634449 3345674
2.1559999 -0.1092027 0.19166042 5113603
2.2260001 -0.10555063 0.25909215 2361349
2.234 -0.11315345 0.2600233 1573893
2.2739999 -0.17032559 0.19111568 2951686
2.1489999 0.023175983 0.29531759 5377798
2.1340001 -0.018386608 0.19315642 1904648
2.1340001 0.047164693 0.3139666 3675142
2.194 -0.11112742 0.14890447 1574404
2.171 -0.12049212 0.18948229 4785929
2.187 -0.11077287 0.15550429 2885125
2.2420001 -0.055563875 0.29359213 3409152
2.2260001 -0.07676018 0.14387523 1775372
2.2019999 -0.043892533 0.24205185 5637890
2.21 -0.065489627 0.2536552 4392710
2.1270001 0.060764987 0.27165195 2166022
2.1559999 -0.077831976 0.17422388 5059113
2.1489999 -0.053259041 0.18756215 1704704
2.2260001 -0.062364955 0.26989374 4326917
2.1559999 0.051136564 0.33115259 3484180
2.1789999 -0.12798177 0.20075405 4195844
2.1559999 0.058107834 0.26140651 1838346
2.2019999 -0.12933265 0.1387623 1377795
2.2739999 0.094375812 0.31985155 1576714
2.1789999 -0.11389048 0.15845996 4065286
2.2260001 -0.083957791 0.14747575 2757128
2.2019999 -0.068812571 0.23849015 5245189
2.2019999 -0.075932577 0.24205185 4785410
2.2260001 0.074389681 0.27709478 2100487
2.1489999 -0.018515848 0.26750973 4851971
2.171 -0.11698224 0.17192446 4327169
2.21 -0.022614364 0.30727494 3736576
2.1789999 -0.12445895 0.179607 4524039
2.142 0.075045526 0.30128497 1510408
2.1489999 0.037073258 0.24665385 1706758
2.1559999 0.065079108 0.33115259 4013345
2.194 -0.12176864 0.15245324 3671811
2.164 -0.11310647 0.18187085 5113351
2.2179999 -0.14461589 0.15770851 4393223
2.171 -0.057314157 0.20352855 4458755
2.1489999 -0.015041529 0.26750973 4917248
2.1789999 -0.018774329 0.2888667 4655105
2.1559999 -0.077831976 0.18817312 4786439
2.171 -0.067843817 0.20352855 4720898
2.171 0.076061547 0.33345652 2564887
2.2260001 -0.069562569 0.26989374 3998980
2.2260001 -0.12714347 0.25189108 1050119
2.1489999 -0.0080928905 0.27793768 5310212
2.2579999 -0.063261487 0.29568732 2884864
2.1789999 -0.092753559 0.22542559 4786178
2.187 -0.078951083 0.21917832 5048834
2.1129999 0.012539386 0.24252191 2819077
2.25 -0.16125275 0.19637732 3409666
2.1789999 -0.039911252 0.21837658 4589060
2.2260001 -0.12354466 0.25189108 1312262
2.187 -0.10016561 0.15550429 1968901
2.2019999 -0.090172596 0.24205185 4065028
2.194 -0.096939139 0.23762371 4065028
2.142 0.02310049 0.23892111 1378822
2.1340001 -0.011486471 0.21041501 1443847
2.2739999 -0.17400201 0.20582834 2230532
2.1340001 -0.052887291 0.1724461 2165769
2.283 0.098440289 0.33958107 1577995
2.234 -0.15288259 0.1552327 3673097
2.1789999 -0.075139455 0.21132757 4984070
2.2019999 -0.040332526 0.24205185 5637890
2.2260001 0.088784903 0.30949953 2166539
2.2019999 -0.015412493 0.31328604 3999493
2.1129999 0.060365029 0.29037043 2361349
2.171 -0.029235061 0.23162109 5637378
2.187 -0.10723712 0.15550429 2426629
2.1559999 -0.05343252 0.19166042 2163712
2.1340001 -0.018386608 0.19660814 1773831
2.164 -0.092115059 0.17487036 4787469
2.098 0.042977169 0.27134168 3671046
2.1199999 -0.0045562452 0.21932182 1181445
2.1789999 -0.10332202 0.15845996 3214858
2.2260001 -0.073161379 0.26269266 3803397
2.21 -0.079781383 0.24293125 4785410
2.266 -0.096456893 0.12446921 1710092
2.1129999 -0.0045412011 0.23226866 3408896
2.2179999 0.04543535 0.35861346 2232835
2.1489999 0.033598941 0.24317788 1904396
2.1789999 0.0023625947 0.32411176 4065028
2.1559999 -0.1092027 0.18817312 5375494
2.142 0.043878503 0.25624439 1641994
2.2019999 -0.12577266 0.23849015 1836806
2.2260001 -0.1487363 0.18348104 4064773
2.1789999 -0.11036766 0.15845996 3672070
2.1489999 -0.01156721 0.26750973 4917248
2.194 -0.11467449 0.14890447 1835776
2.171 -0.10645257 0.21757482 4392962
2.21 -0.14409429 0.2107594 3408385
2.142 0.036952499 0.31167895 4461065
2.21 -0.051197875 0.23935659 5572355
2.1789999 -0.12445895 0.19370502 4589063
2.283 -0.056579985 0.32481018 1115652
2.171 0.033942904 0.23864423 1446155
2.1789999 -0.068093814 0.15845996 3937552
2.21 -0.14409429 0.21790871 2622980
2.098 0.039585304 0.27812865 5441289
2.171 -0.12049212 0.21406326 3671810
2.2179999 -0.11951479 0.13259539 985606
2.1559999 -0.025547432 0.22653346 4916998
2.171 0.012883581 0.32292181 4262405
2.2579999 -0.055960406 0.31029648 1967618
2.1789999 -0.0011602258 0.31353825 4457991
2.1559999 -0.088288881 0.1846858 5048586
2.234 -0.01924821 0.33951959 2033153
2.098 0.036193438 0.26794818 4393224
2.171 0.026923129 0.23513266 1577227
2.2260001 -0.055167343 0.28789636 3802368
2.164 -0.074622206 0.16786987 3615265
2.2420001 -0.077311918 0.27546006 3278341
2.098 0.05315277 0.28491566 3608074
2.2260001 -0.06596376 0.27349424 4064773
2.1340001 -0.018386608 0.20005985 1838854
2.164 -0.099112198 0.20987281 4917766
2.2739999 -0.17032559 0.18375933 3017479
2.1199999 -0.0045562452 0.22960904 2556928
2.1789999 0.083387472 0.33116078 2958365
2.1489999 -0.04978472 0.19451413 2163969
2.2179999 -0.14820176 0.14694574 3280653
2.283 -0.075034782 0.30634657 1246720
2.2260001 -0.073161379 0.14747575 1775372
2.2019999 -0.075932577 0.15657085 3215117
2.2579999 -0.16547664 0.16785724 3280135
2.2260001 -0.015580476 0.33470324 2688514
2.1129999 0.03303609 0.28353494 5836047
2.2420001 -0.15343006 0.16304141 4197127
2.194 -0.011809426 0.30859908 4195331
2.283 0.094749331 0.34696653 2432274
2.2579999 -0.16912718 0.16420496 2821899
2.2019999 -0.10085262 0.15300913 1773064
2.2019999 -0.068812571 0.24205185 5048069
2.2579999 -0.030406618 0.34316707 1442818
2.171 -0.12049212 0.18948229 4785929
2.21 0.013115023 0.3501707 3345415
2.1559999 -0.046461251 0.20212233 2884864
2.1789999 -0.12798177 0.20427854 4130821
2.2260001 -0.062364955 0.27709478 4065028
2.2179999 -0.051383205 0.27968651 4589314
2.171 -0.078373477 0.20704013 4787461
2.2019999 -0.079492584 0.15657085 2886923
2.2260001 -0.11274824 0.12947311 1511948
2.1559999 -0.081317611 0.19863503 4589828
2.142 -0.025381541 0.19734518 1773062
2.105 0.056733299 0.29267588 3083270
2.1340001 0.026464282 0.2449322 1378822
2.2019999 -0.14001267 0.22068161 2623234
2.1340001 -0.025286745 0.19315642 1969928
2.2420001 -0.07006257 0.28633928 2885377
2.187 -0.096629851 0.22979066 4589314
2.194 -0.12531571 0.15245324 4065028
2.1489999 -0.018515848 0.26750973 4851971
2.3 0.035959776 0.38303217 1379074
2.1199999 0.06056501 0.3050487 2888967
2.21 -0.054770812 0.26795378 4589060
2.266 -0.067149095 0.30406541 1967618
2.1489999 0.064867809 0.32312545 4472609
2.187 -0.11430863 0.15550429 3606793
2.194 -0.11822157 0.1453557 1770240
2.1129999 0.039868325 0.29378819 5313033
2.2179999 -0.051383205 0.27968651 4589314
2.171 -0.071353704 0.20001699 4524289
2.234 -0.026471689 0.3286792 2819330
2.2019999 -0.047452539 0.26698381 4589312
2.1489999 0.03012462 0.30574554 6366490
2.164 -0.10261077 0.17137012 4654596
2.105 0.04652375 0.26203257 1444874
2.1559999 -0.10571706 0.17771119 5376007
2.1270001 -0.011448792 0.25100958 5310465
2.1789999 0.048159264 0.33820981 2759430
2.1789999 0.0058854152 0.31706277 4392710
2.2260001 -0.0047840574 0.34910536 2229505
2.187 0.073086359 0.28285235 2952715
2.164 -0.078120776 0.19937207 4524548
2.2179999 -0.14820176 0.1935844 3802883
2.1559999 -0.10571706 0.17771119 5376007
2.164 0.072317727 0.29037842 2492683
2.1559999 0.0058232932 0.29279223 5311495
2.1559999 0.019765837 0.31720337 4459782
2.2579999 -0.088815272 0.13133436 1971981
2.21 -0.051197875 0.26795378 4589314
2.1559999 -0.056918159 0.18817312 1769472
2.21 -0.058343753 0.25722983 4654855
2.1559999 0.0058232932 0.29279223 5311495
2.194 -0.0011682127 0.33344045 3540484
2.2019999 -0.043892533 0.23849015 5506304
2.1789999 -0.029342791 0.23599911 5834242
2.283 0.094749331 0.34696653 2432274
2.1129999 -0.0045412011 0.24252191 5113351
2.2579999 -0.088815272 0.27742589 2295298
2.171 -0.088903137 0.21757482 4917250
2.1270001 0.019499971 0.28541353 5835782
2.1559999 0.019765837 0.30674145 4985097
2.234 0.089103989 0.30699837 2363661
2.1789999 0.0058854152 0.32411176 4261637
2.2019999 -0.13289265 0.23492844 1639684
2.142 -0.021918537 0.21466848 1507841
2.1489999 -0.01156721 0.27098572 5179394
2.3169999 0.0025122222 0.37836784 1378052
2.1559999 -0.074346341 0.17771119 4070678
2.1270001 -0.014887543 0.21316519 1180675
2.266 -0.16606291 0.17578241 3476488
2.105 0.0090887276 0.2416037 3474439
2.105 0.053330116 0.28927109 3607558
2.1559999 0.033708382 0.31371605 4395274
2.1489999 0.012753025 0.29531759 4852225
2.1199999 0.05371014 0.3050487 3477763
2.1489999 -0.04978472 0.19103813 1705216
2.21 -0.036906119 0.29655099 3802884
2.3 0.024804449 0.37559173 2295555
2.142 -0.053085558 0.1696279 2428169
2.1559999 0.012794565 0.21955885 1904398
2.2019999 -0.065252565 0.23136674 5441539
2.142 -0.032307543 0.19734518 1116163
2.164 -0.099112198 0.17137012 4589062
2.098 0.05315277 0.27473518 2624263
2.1559999 0.0093089296 0.21955885 2100750
2.2739999 -0.17400201 0.19111568 2558981
2.2179999 -0.13744414 0.13618298 1969160
2.2019999 -0.047452539 0.27410725 4654594
2.234 0.089103989 0.3033849 2559755
2.194 -0.13595693 0.16309956 4393475
2.1489999 -0.060207676 0.17713422 1378822
2.187 -0.082486838 0.2333281 5048323
2.1270001 -0.014887543 0.24412878 5376259
2.194 -0.036638927 0.28730646 4261124
2.21 -0.14052135 0.14641573 3936269
2.1559999 -0.095260158 0.18119849 5311243
2.2179999 -0.14461589 0.22946028 1312259
2.142 -0.032307543 0.19734518 1116163
2.21 -0.047624934 0.2536552 5310984
2.1489999 -0.060207676 0.17713422 1378822
2.194 -0.065015495 0.21987985 5311235
2.2179999 -0.037039716 0.30121204 3540225
2.2019999 -0.14001267 0.20999648 3408640
2.187 -0.089558341 0.16257918 2757641
2.1489999 0.071816452 0.29531759 2100235
2.1129999 0.012539386 0.23910415 1639424
2.266 -0.17338987 0.1611215 2363918
2.1489999 0.012753025 0.30226958 4656132
2.1559999 -0.084803246 0.18817312 5113864
2.164 -0.0046508089 0.29037842 4917250
2.164 -0.074622206 0.20287232 4655875
2.234 -0.033695169 0.31061184 3474432
2.2579999 -0.16912718 0.16420496 2821899
2.1489999 -0.060207676 0.18061019 1509381
2.2179999 -0.12310065 0.13618298 919044
2.234 -0.15288259 0.1552327 3673097
2.105 0.0056855436 0.2416037 4064777
2.21 -0.09764608 0.14641573 1902595
2.142 -0.018455535 0.25277975 5507842
2.171 -0.081883363 0.21406326 4786432
2.164 0.072317727 0.29037842 2492683
2.3429999 0.10481538 0.33334658 790280
2.194 -0.12886278 0.1453557 3015937
2.234 -0.15288259 0.16968657 4458757
2.21 -0.072635509 0.25008056 4392964
2.164 -0.081619345 0.17487036 4530200
2.2420001 -0.16067941 0.22106394 1640449
2.105 0.04652375 0.29267588 4460036
2.2260001 -0.12714347 0.25189108 1050119
2.1559999 -0.022061797 0.25791919 5245440
2.2019999 -0.072372571 0.15657085 3280910
2.1789999 -0.02581997 0.2818177 4981249
2.25 -0.16125275 0.15998383 3149065
2.266 -0.09279342 0.12813444 1578506
2.1559999 -0.098745793 0.18817312 5573127
2.1559999 -0.098745793 0.20212233 4916996
2.266 0.086716846 0.30040017 3345676
2.2179999 -0.047797333 0.28686169 4261378
2.1340001 0.012664009 0.22422189 1772810
2.1789999 -0.12798177 0.17608249 4458244
2.2019999 -0.072372571 0.23849015 5113603
2.2019999 -0.14001267 0.16013256 4458755
2.1199999 0.02286323 0.23989627 1509638
2.1559999 0.065079108 0.33115259 4013345
2.1559999 0.0058232932 0.29279223 5311495
2.194 -0.13595693 0.1808434 4524039
2.2260001 0.031204004 0.35990694 2755337
2.105 -0.0011208239 0.24841332 5245187
2.21 -0.051197875 0.2465059 5310212
2.142 0.0057854797 0.28049701 5573384
2.25 -0.10305104 0.12359035 1643786
2.2260001 -0.094754212 0.25909215 3081989
2.164 0.072317727 0.32538086 2959380
2.171 -0.09592291 0.2210864 4720385
2.142 -0.032307543 0.20080984 1312259
2.1559999 -0.10223143 0.17771119 5245191
2.2019999 -0.072372571 0.23849015 5113603
2.1489999 0.023175983 0.29531759 5377798
2.2019999 -0.10441262 0.15300913 1640965
2.1789999 0.051682085 0.34173432 3880221
2.187 -0.071879573 0.21917832 5179907
2.187 -0.11784438 0.2333281 2820102
2.1199999 0.012580927 0.23303811 920322
2.105 0.036314197 0.25862777 1769984
2.1129999 0.039868325 0.29378819 5313033
2.2179999 -0.094413675 0.2509858 3475459
2.21 -0.09764608 0.2465059 3540482
2.2420001 -0.022941813 0.33348259 2754307
2.2179999 -0.1302724 0.24739823 984837
2.2579999 -0.092465818 0.13133436 1971723
2.2179999 -0.11234304 0.13618298 1575174
2.234 -0.01563647 0.34674653 1508352
2.21 0.013115023 0.35374537 2952199
2.1489999 -0.018515848 0.26055777 5049603
2.1789999 -0.036388431 0.22190107 5047812
2.194 -0.068562567 0.21278232 5049604
2.1789999 -0.12798177 0.19018053 4393223
2.1340001 -0.0045863339 0.20696329 1707789
2.2019999 -0.0082924822 0.33109459 3278339
2.3080001 0.013696594 0.37689814 1771009
2.1340001 0.012664009 0.22767361 1576714
2.194 -0.12531571 0.14890447 3211520
2.1489999 -0.032413125 0.21189404 3343105
2.2579999 -0.07421311 0.29203504 2098946
2.1489999 -0.032413125 0.20841804 2425601
2.21 -0.054770812 0.23935659 5441539
2.283 -0.089798614 0.29526839 919043
2.194 0.052037857 0.34763554 3682844
2.2420001 -0.059188548 0.28633928 3868160
2.1340001 -0.049437225 0.18280126 1639936
2.283 0.094749331 0.34696653 2432274
2.1789999 -0.12093613 0.22542559 3016196
2.2420001 -0.033815835 0.31535056 3015936
2.164 -0.067625068 0.17137012 1772549
2.1559999 -0.091774523 0.19863503 5113862
2.1559999 -0.10571706 0.20909694 4786693
2.21 -0.047624934 0.24293125 5572355
2.2909999 -0.067889929 0.31853703 919043
2.2260001 -0.098353021 0.14387523 2625290
2.1199999 0.05371014 0.3050487 3477763
2.1129999 0.022787739 0.25277516 3080960
2.2019999 -0.09729261 0.15300913 2430992
2.1789999 0.037590802 0.33820981 3215109
2.1340001 -0.014936539 0.21041501 1312261
2.194 -0.079203784 0.23762371 5047812
2.2179999 -0.11951479 0.13618298 1115909
2.1789999 -0.068093814 0.16198447 4332823
2.1129999 -0.0011250837 0.25619292 5245955
2.187 -0.075415328 0.22625321 5179394
2.1199999 0.06056501 0.27761608 2034953
2.2179999 -0.14461589 0.18999681 3868676
2.2260001 -0.15233511 0.22308685 1771524
2.105 0.0056855436 0.24500851 4589063
2.164 0.02333775 0.32888111 4329479
2.2579999 -0.16182609 0.1788141 3672068
2.21 -0.12622958 0.13569178 918530
2.1789999 0.037590802 0.34173432 3149574
2.21 -0.13694841 0.23935659 1114882
2.2179999 0.038263604 0.35861346 2493702
2.1340001 0.033364419 0.24838392 1509381
2.1270001 -0.001132538 0.26477116 5245189
2.194 -0.079203784 0.23762371 5047812
2.2260001 -0.15233511 0.21948633 2229763
2.1270001 -0.014887543 0.220046 1901568
2.187 -0.032986276 0.27224001 4916996
2.1199999 0.012580927 0.27075794 5245191
2.21 0.013115023 0.3501707 3345415
2.2019999 -0.043892533 0.25273699 5507591
2.1559999 0.026737111 0.3276653 4264199
2.098 0.039585304 0.26794818 3868938
2.2019999 -0.047452539 0.22780502 5638148
2.1789999 -0.02581997 0.27829319 5244421
2.2019999 -0.14001267 0.18506451 4196614
2.1129999 0.022787739 0.26986393 5048584
2.187 -0.022379011 0.28992724 4458496
2.1489999 -0.042836081 0.1979901 1770240
2.2260001 -0.062364955 0.27349424 4326917
2.1340001 -0.03563695 0.18625298 1838344
2.194 -0.029544784 0.294404 4130821
2.1789999 -0.0046830466 0.29944023 4786182
2.2579999 -0.088815272 0.13133436 1971981
2.1489999 -0.060207676 0.17713422 1378822
2.105 0.029507829 0.25862777 3278341
2.2909999 -0.071593821 0.3111257 1180673
2.105 0.0056855436 0.23819889 3015939
2.21 -0.047624934 0.2536552 5310984
2.098 0.039585304 0.27134168 4392198
2.171 -0.12049212 0.21406326 3671810
2.164 -0.071123637 0.19237158 4130049
2.1199999 -0.0079836799 0.24675442 5310212
2.2179999 -0.033453844 0.30121204 3671298
2.266 -0.04883172 0.3187263 1967618
2.142 -0.053085558 0.16616325 2561037
2.2179999 -0.14820176 0.17564645 4392453
2.1559999 0.012794565 0.21955885 1904398
2.1489999 -0.0046185711 0.27793768 5310212
2.2420001 -0.16067941 0.21018472 2688514
2.105 0.03971738 0.28586626 6033935
2.187 -0.11784438 0.15550429 3934472
2.2739999 -0.05268053 0.31617337 2033413
2.2260001 -0.073161379 0.14747575 1775372
2.171 0.012883581 0.32994497 4197125
2.2260001 -0.06596376 0.27709478 3802884
2.3 0.035959776 0.38303217 1379074
2.1789999 0.012931056 0.3346853 3934980
2.2260001 0.056395646 0.36710799 1315852
2.194 -0.043733068 0.25536755 5245191
2.171 -0.12049212 0.21055169 3999746
2.171 -0.08539325 0.21055169 5114375
2.1559999 -0.095260158 0.1846858 5441800
2.098 0.05315277 0.28491566 3608074
2.1489999 0.023175983 0.29879358 5115654
2.1559999 -0.022061797 0.24745728 5442821
2.2739999 -0.17400201 0.19479384 2624774
2.105 0.053330116 0.28927109 3607558
2.1489999 0.075290769 0.29184163 2558217
2.164 0.01634061 0.32188064 4328196
2.171 0.033942904 0.23864423 1446155
2.21 -0.051197875 0.26795378 4589314
2.187 -0.13198739 0.1873413 4196614
2.21 -0.054770812 0.22863266 5638403
2.1559999 0.019765837 0.30674145 4985097
2.2579999 -0.16182609 0.1788141 3672068
2.1789999 0.037590802 0.34173432 3149574
2.266 0.086716846 0.29673493 2885895
2.21 -0.047624934 0.2322073 5769476
2.2019999 -0.040332526 0.24205185 5637890
2.194 -0.13240986 0.16664831 4328196
2.194 -0.043733068 0.25536755 5245191
2.2420001 -0.07368724 0.28633928 2361089
2.2420001 0.045926984 0.36612028 1575936
2.1340001 -0.028736813 0.18280126 1773580
2.187 -0.071879573 0.22271577 5310980
2.2909999 -0.041962679 0.3444767 852737
2.2179999 0.038263604 0.35861346 2493702
2.1489999 -0.056733359 0.18061019 1443845
2.2739999 0.094375812 0.32720789 1248778
2.234 -0.01202473 0.35036001 1705731
2.1340001 -0.0045863339 0.21041501 1575948
2.1199999 0.019435795 0.27075794 5179657
2.142 -0.0011405249 0.27703235 5310212
2.1789999 -0.1174133 0.16550897 4392962
2.1129999 0.026203856 0.26302841 4457991
2.2260001 -0.083957791 0.14387523 2233612
2.1340001 -0.014936539 0.26219082 4852737
2.194 -0.011809426 0.31214786 4195845
2.2579999 -0.066912025 0.29568732 2557441
2.2179999 -0.11951479 0.13259539 985606
2.164 0.072317727 0.32888111 3222552
2.2260001 -0.11994585 0.25189108 1639686
2.25 -0.092138216 0.13814774 2429705
2.21 -0.047624934 0.2465059 5507334
2.105 0.0090887276 0.24500851 4261384
2.194 -0.13240986 0.17374586 4524037
2.1559999 0.044165291 0.32417798 3347722
2.1489999 0.050970536 0.32660145 2496258
2.3080001 0.013696594 0.3806313 1771781
2.1559999 -0.098745793 0.20212233 4916996
2.2019999 -0.09729261 0.14944743 1508864
2.164 0.012842041 0.31838039 4459014
2.1789999 -0.036388431 0.22190107 5047812
2.1199999 0.026290664 0.25361258 2359808
2.1789999 0.051682085 0.25362164 1576714
2.2260001 -0.069562569 0.26989374 3998980
2.1340001 -0.014936539 0.19660814 1773831
2.1789999 -0.03286561 0.24304812 5637890
2.234 -0.01563647 0.33951959 2295298
2.171 -0.092413023 0.2210864 4720385
2.098 0.049760904 0.27473518 2950403
2.164 -0.0046508089 0.28687817 4982530
2.1129999 0.0057071513 0.23568641 2032384
2.2179999 -0.0908278 0.14694574 2886920
2.164 -0.053630788 0.20287232 4065539
2.1489999 -0.056733359 0.18061019 1443845
2.1270001 -0.014887543 0.24068838 5572355
2.234 -0.01563647 0.34674653 1508352
2.1559999 0.023251474 0.32069069 4393989
2.194 -0.10758035 0.23762371 3409414
2.2420001 -0.10268463 0.13040373 1971211
2.234 -0.084259525 0.14077882 1971981
2.194 -0.068562567 0.21633108 5114626
2.2019999 -0.13645266 0.14944743 4065028
2.171 -0.029235061 0.24917893 5770503
