# .PCD v0.7 - Point Cloud Data file format
VERSION 0.7
FIELDS x y z rgba
SIZE 4 4 4 4
TYPE F F F U
COUNT 1 1 1 1
WIDTH 1199
HEIGHT 1
VIEWPOINT 0 0 0 1 0 0 0
POINTS 1199
DATA ascii
1.531 -0.035467848 -0.017434981 14100786
1.5089999 -0.02763932 -0.04647392 11408917
1.562 -0.086692169 0.020109739 10822437
1.5700001 -0.13790101 -0.00010291742 13115942
1.498 0.08396671 -0.041289151 14558258
1.574 -0.1560653 -0.0077409586 14038582
1.487 0.088158242 -0.053011984 14356767
1.574 -0.1535206 0.032993864 9973558
1.539 -0.055558167 -0.039929911 12395291
1.535 -0.05293211 -0.029894754 14167096
1.6059999 -0.094327085 -0.0702428 8137763
1.562 -0.11699586 -0.015261492 14101808
1.52 0.0041054757 -0.024685459 15086139
1.566 -0.13501789 -0.038097452 3613477
1.484 0.13356526 -0.079308912 5382941
1.574 -0.10008172 -0.053567633 6434099
1.582 -0.13895503 0.017808359 11409695
1.558 -0.073875956 0.0024179157 12133157
1.566 -0.066659972 0.0074963039 12396077
1.558 -0.033574503 -0.083263665 6625813
1.59 -0.021411214 -0.087545641 6231567
1.516 0.065368146 -0.024620498 14233905
1.47 0.11329265 -0.07856071 4325891
1.456 0.100444 -0.051906824 14820919
1.516 0.099681295 -0.10063597 9120559
1.543 0.01913514 0.012377773 8664109
1.558 -0.088989004 -0.0076622702 13839925
1.535 0.083558999 -0.0025834674 9510427
1.524 -0.030377937 -0.019820318 13572902
1.5700001 -0.13790101 -0.0026423738 13313321
1.513 0.077469237 -0.029466296 14035761
1.487 0.088158242 -0.057822395 15413303
1.61 -0.13100277 0.046769265 5642520
1.6059999 -0.029416004 0.020676211 8597033
1.562 -0.10941993 -0.010208459 13773104
1.55 -0.003331217 0.012433927 9579047
1.5700001 -0.14297749 -0.030576395 3672588
1.531 0.1204691 -0.0025767353 7413021
1.52 0.14909242 -0.039436951 11295057
1.566 -0.13248612 -0.038097452 3743780
1.602 -0.03452269 -0.088206358 4856597
1.516 -0.025316596 -0.054045841 5309185
1.5700001 -0.099827379 -0.050892044 4597036
1.527 0.15471648 -0.032208856 9196364
1.527 0.15471648 -0.024799142 7554108
1.524 0.06817697 -0.093771875 7414309
1.527 0.080654792 -0.0050399075 10694447
1.48 0.11645609 -0.038399138 15347774
1.598 -0.13519336 0.038666438 8199454
1.566 -0.079318844 0.015095264 11807022
1.473 0.12781239 -0.062043119 13717588
1.582 -0.12872446 0.017808359 13052968
1.554 -0.0083645619 0.0099524381 10955563
1.502 0.08419092 -0.077841409 3342337
1.52 -0.013096365 -0.014851131 13049126
1.524 0.031218879 -0.088841774 7608860
1.524 0.06817697 -0.014890213 13185845
1.52 0.08274246 -0.017309714 11607842
1.59 -0.10881079 -0.059255771 10429479
1.558 -0.088989004 -0.00010213079 14171712
1.531 -0.047843799 -0.039722349 13313830
1.582 -0.16964673 -0.04360443 7951176
1.531 0.070965305 -0.057056971 16202823
1.566 -0.076787069 -0.058361344 5977135
1.531 -0.050318986 -0.037245978 14300724
1.498 0.14693451 -0.099441081 1446668
1.5779999 -0.12074546 -0.053703763 12346985
1.558 -0.068838276 -0.05050306 4133648
1.527 0.13990414 -0.014919525 10570053
1.52 0.063083217 -0.091067173 6892845
1.516 0.026153123 -0.061402179 7209992
1.516 0.077622838 -0.09573175 7547178
1.524 0.033682752 -0.091306821 8461857
1.566 -0.15780386 0.015095264 12789814
1.531 -0.042893417 -0.049627848 5767168
1.456 0.11221367 -0.047196697 15940688
1.5700001 -0.14297749 -0.0026423738 13642284
1.494 0.15378827 -0.06534417 5917232
1.524 0.0090440251 -0.076516509 5844268
1.535 0.014072617 -0.087000176 9581108
1.477 0.12815946 -0.074156754 4521984
1.5779999 -0.16411543 -0.035836991 4141101
1.543 -0.028262075 -0.0025969318 13314867
1.562 -0.11194524 -0.0076819425 15221318
1.562 -0.069015011 -0.058212273 4333598
1.5779999 -0.036556672 0.017763332 9908273
1.554 -0.091272905 0.002411708 12657960
1.524 0.075568587 -0.10363209 5900300
1.527 0.036217779 -0.096426368 6096646
1.52 0.087657273 -0.0099339681 11019044
1.516 0.048211575 -0.071210623 3671046
1.582 -0.12616681 -0.053839896 10236217
1.527 0.016467996 -0.027269047 14888503
1.535 0.081077345 0.0048650657 7477523
1.631 -0.098432302 0.044741176 4659483
1.52 0.065540619 -0.076315679 3148042
1.513 0.072577059 -0.036808074 15480638
1.52 0.013935099 -0.044354115 15084089
1.527 0.023874165 -0.091486558 7018011
1.535 0.01159096 -0.0025834674 12065831
1.554 -0.030975929 0.0049252845 11738147
1.52 0.018849911 -0.064022772 3998208
1.566 -0.12489079 -0.030498492 7274507
1.562 -0.051337857 0.010003673 11869735
1.55 -0.02839029 -0.07782191 8525072
1.5089999 0.052868206 -0.019625235 13774389
1.516 0.033505939 -0.061402179 8520969
1.516 0.060466267 -0.017264161 12590884
1.527 0.038686503 -0.0050399075 12135474
1.5700001 -0.094750896 -0.045813132 12363432
1.513 0.048116166 -0.07841149 4008234
1.554 -0.061124418 -0.060427707 4332056
1.543 0.16382137 -0.027554775 2164739
1.494 0.1006501 -0.024263209 12853287
1.598 -0.10419125 0.03608169 6755861
1.543 -0.060691748 -0.020067422 13772073
1.524 0.046002116 -0.093771875 7670543
1.5089999 0.14557384 -0.041592341 11490637
1.524 0.05832148 -0.074051462 3343623
1.55 -0.043425735 -0.0051158196 12986156
1.546 -0.06080975 -0.050114077 4590602
1.539 -0.045605674 -0.052376486 4721163
1.582 -0.13383974 0.017808359 12658730
1.52 0.11468874 -0.0099339681 10958646
1.5700001 -0.15566869 0.012594365 11736868
1.513 -0.00080560887 -0.029466296 15281470
1.619 -0.10294301 -0.073430099 7613221
1.531 0.085816443 0.0023760134 11286068
1.574 -0.14079705 -0.015378738 13446698
1.52 0.058168404 -0.076315679 3873050
1.516 0.033505939 -0.073662736 3546650
1.494 0.14654216 -0.079843335 11309188
1.494 0.14895752 -0.0943425 4668731
1.5700001 -0.13028628 -0.028036937 8653335
1.55 -0.023378475 0.0024055003 12658220
1.554 0.1021799 0.0049252845 8995643
1.5779999 -0.15391074 -0.01541782 12723754
1.5779999 -0.079926655 0.020315729 10691364
1.52 -0.013096365 -0.061564188 3347220
1.5700001 -0.099827379 -0.033115849 9703436
1.502 0.08419092 -0.065694071 13181994
1.524 0.063249223 -0.071586408 4916226
1.562 -0.12709709 -0.03800014 4333866
1.505 0.10625748 -0.095037125 6834251
1.505 0.10625748 -0.019573214 12529716
1.527 0.013999274 -0.037148666 14822969
1.5700001 -0.13282453 -0.030576395 5900047
1.566 -0.11729547 -0.027965507 10881807
1.5700001 -0.13282453 -0.028036937 7932181
1.539 -0.055558167 -0.024994029 14297144
1.505 0.14762111 -0.053653687 12157799
1.502 0.11333058 -0.021963665 12659762
1.498 0.091232225 -0.087326095 4075567
1.52 -0.00080933602 -0.022226878 15020349
1.494 0.14654216 -0.089509442 4536886
1.505 0.17681898 -0.075562567 5856604
1.516 0.038407817 -0.083471186 5909032
1.516 0.028604062 -0.029524721 15150905
1.531 -0.045368608 -0.047151472 8194316
1.5779999 -0.13860369 0.015210936 12395307
1.5089999 0.050428584 -0.019625235 13642546
1.505 0.0016318059 -0.03904777 15085878
1.566 -0.11476369 -0.027965507 12130333
1.5700001 -0.094750896 -0.04073422 9460052
1.52 0.0065628816 -0.029602623 16204620
1.602 -0.1329418 0.038763225 7674393
1.527 0.13249797 -0.01244962 11157570
1.562 -0.10941993 0.017583223 12462379
1.546 -0.013320382 0.0023992925 11738658
1.459 0.10772731 -0.068533182 15096698
1.586 -0.15469101 -0.053976025 10174007
1.4910001 0.090805911 -0.031449512 14562883
1.531 -0.037943039 -0.014958607 14825280
1.494 0.15137289 -0.067760698 3812108
1.59 -0.14222828 0.033329252 9772578
1.4529999 0.11198246 -0.056500293 16744348
1.524 0.075568587 -0.017355265 13052976
1.47 0.11091609 -0.076183006 6096399
1.498 0.14693451 -0.063096128 10124639
1.59 -0.047116973 0.020470221 9578538
1.531 -0.045368608 -0.02238773 14561589
1.594 -0.11681566 -0.056826565 11751247
1.52 0.097486898 -0.0099339681 10825256
1.524 0.10267118 -0.10363209 8327190
1.524 0.078032464 -0.061726201 14297395
1.5700001 -0.13790101 0.0075154519 13050668
1.558 -0.076394796 -0.00010213079 13250608
1.566 -0.12995434 -0.012767588 13248037
1.516 0.087426595 -0.014812049 13056828
1.5089999 0.035790849 -0.031829182 15610945
1.531 0.051163789 0.0073287622 8399654
1.516 0.053113453 -0.044237394 15870265
1.513 0.00164048 -0.034360815 14888503
1.531 0.16502252 -0.037245978 1181956
1.566 -0.12742257 -0.015300574 14563384
1.543 0.16881056 -0.027554775 2364172
1.449 0.11401681 -0.063375972 15823742
1.586 -0.098280616 0.030680068 8594464
1.513 0.038331814 -0.061280672 9242382
1.47 0.10616294 -0.076183006 5505031
1.524 0.046002116 -0.098701976 4718592
1.516 0.048211575 -0.058950067 14100022
1.524 0.0090440251 -0.03707568 15679044
1.582 -0.1491856 -0.051281027 9382183
1.5779999 -0.056966074 0.017763332 10626085
1.558 -0.083951324 -0.020262502 13972791
1.5779999 -0.15901309 -0.020522613 7540493
1.459 0.11244489 -0.070893094 13129060
1.498 0.13724715 -0.038866155 12798545
1.558 -0.088989004 -0.012702364 13181741
1.623 -0.12156484 0.047146905 5316122
1.535 -0.00081732293 -0.079551637 9187890
1.546 -0.055810869 -0.0076032542 13905715
1.562 -0.11699586 -0.0026289094 14432313
1.539 -0.023212563 -0.074780315 9055017
1.527 0.021405442 -0.034678761 15546179
1.505 0.040562287 -0.029310493 15216188
1.524 0.10020731 -0.0074950578 9905955
1.562 -0.11952117 -0.032947108 6750730
1.543 0.01664055 0.0073862053 9184801
1.498 -0.010484975 -0.048558142 11802913
1.48 0.090135977 -0.064731844 13903661
1.524 0.026291134 -0.034610629 15611456
1.574 -0.1535206 -0.0051950323 13512751
1.5779999 -0.15135956 0.020315729 12923450
1.562 -0.11447055 -0.015261492 12785694
1.602 -0.08373224 0.028398361 8593694
1.516 0.026153123 -0.066306405 3540737
1.527 -0.018094122 -0.0075098118 13642292
1.566 -0.13501789 -0.0051686279 14037555
1.546 -0.018319262 -0.082622357 7673360
1.55 -0.053449363 -0.002608713 13644085
1.513 -0.032604765 -0.046597112 10490131
1.558 -0.11417741 0.0024179157 13181992
1.602 -0.14848165 -0.0622942 6699318
1.566 -0.089445941 -0.035564464 9378841
1.531 0.078390874 -0.0050531095 10036518
1.574 -0.1535206 0.027902011 11085615
1.627 -0.10871247 -0.071161292 9447724
1.513 -0.020374319 -0.053938892 5899267
1.5700001 -0.15059221 -0.038194764 3876900
1.524 0.075568587 -0.051865991 15281717
1.574 -0.15097588 -0.0026491059 13315374
1.531 0.0066103758 -0.07934434 7086627
1.55 -0.063472994 -0.042722419 9836051
1.4910001 0.15588997 -0.070036307 3877398
1.539 0.0016686707 0.0023884289 12596536
1.566 -0.13754967 -0.040630437 3811115
1.516 -0.020414717 -0.019716274 15021376
1.5779999 -0.15391074 -0.0026558382 13053229
1.566 -0.11729547 0.012562277 12986155
1.459 0.11952125 -0.052013777 15221588
1.52 -0.037670422 -0.027144041 16139081
1.498 0.11060693 -0.021905173 12988727
1.524 0.028755007 -0.042005785 15479098
1.516 0.0065456107 -0.056497954 8062728
1.498 -0.020172328 -0.038866155 15019570
1.562 -0.07911624 0.0074771564 12133932
1.55 -0.0659789 -0.010130033 13902895
1.52 0.011477693 -0.066481352 3675918
1.582 -0.13895503 0.020367226 11870246
1.4910001 0.14383738 -0.072447985 4924435
1.527 0.04609267 0.0023698057 10039338
1.566 -0.074255295 -0.060894329 5707541
1.535 -0.0082622925 -0.00010062308 12133157
1.524 0.10020731 -0.10609713 10694198
1.513 0.11660665 -0.10043682 7550777
1.598 -0.14036039 0.054174915 3939359
1.5089999 0.1748493 -0.058677871 10721687
1.574 -0.14588647 0.0075345994 13971520
1.539 -0.033165056 -0.064823054 4005914
1.531 -0.010715952 -0.0050531095 13446196
1.566 -0.11476369 -0.038097452 8999511
1.52 0.023764722 -0.081232846 5447459
1.513 0.035885725 -0.06372793 5832704
1.535 -0.028115544 -0.06713742 5254441
1.48 0.097314186 -0.076701254 4784135
1.527 0.060905006 -0.069257423 5898240
1.513 0.057900522 -0.027019037 14626358
1.566 -0.086914167 -0.035564464 9902875
1.524 -0.015594702 -0.066656306 4598313
1.513 0.079915322 -0.068622448 9702673
1.566 -0.086914167 -0.033031479 11675688
1.5779999 -0.14880839 0.012658539 11932965
1.5700001 -0.074444965 0.01513382 11543337
1.505 0.042995442 -0.031744812 14952505
1.459 0.12188003 -0.056733605 14105676
1.494 0.15137289 -0.075010285 9405293
1.558 -0.033574503 0.009978055 11018023
1.502 0.086619228 -0.026822599 13117488
1.524 0.0065801521 -0.071586408 3876387
1.524 0.055857606 -0.054331046 14161704
1.574 -0.1560653 -0.03574615 3614755
1.502 0.15218346 -0.055976205 14139293
1.516 -0.030218475 -0.024620498 15349052
1.5089999 0.16509081 -0.056237079 7953754
1.5089999 0.1309361 -0.10261209 4335909
1.61 -0.12839985 0.049373422 4856344
1.513 -0.035050854 -0.036808074 14558768
1.524 0.0657131 -0.0099601094 12660789
1.59 -0.14736943 -0.059255771 9323328
1.527 0.023874165 -0.0099797165 13577779
1.554 -0.048562549 -0.00010186858 12855086
1.5700001 -0.14043924 -0.010260743 13906479
1.52 -0.020468583 -0.059105609 3608072
1.5700001 -0.051600792 0.012594365 12003374
1.516 0.043309696 -0.044237394 15672886
1.558 -0.16455424 0.0024179157 11481915
1.484 0.13116606 -0.079308912 4527377
1.513 0.0065326574 -0.049044371 13639465
1.531 -0.050318986 -0.034769602 13839661
1.527 0.10534202 -0.002570003 7739668
1.59 -0.14479886 0.04876009 5315355
1.598 -0.13519336 0.033496946 9905445
1.516 0.021251244 -0.056497954 9896456
1.566 -0.076787069 -0.055828355 3611158
1.558 -0.099064365 -0.017742457 13577265
1.516 -0.010610962 -0.061402179 3478290
1.4529999 0.11198246 -0.065901138 16752811
1.52 0.092572086 -0.09844292 8598065
1.546 -0.095801912 0.0099012023 12525604
1.562 -0.094268091 -0.027894074 11867415
1.4630001 0.096196391 -0.047423605 15480899
1.558 -0.10913973 -0.01522241 14628413
1.558 -0.10158321 -0.020262502 14169149
1.566 -0.11982724 -0.027965507 10751765
1.513 0.045670077 -0.07841149 3416608
1.546 -0.048312549 -0.062617257 4464157
1.574 -0.14588647 -0.015378738 13512238
1.562 -0.099318705 0.022636255 10428192
1.535 0.066187404 -0.054723199 15610433
1.562 -0.11447055 0.015056706 12328996
1.52 0.038509157 -0.0074753859 12396590
1.562 -0.074065626 -0.03800014 11741478
1.5700001 -0.089674413 -0.04073422 10972001
1.546 0.16413988 -0.025107712 3743255
1.466 0.096393652 -0.064119518 16735334
1.505 0.10139117 -0.019573214 12527661
1.4910001 0.088395387 -0.033861186 14298686
1.527 0.15471648 -0.027269047 8013887
1.52 0.070455432 -0.076315679 3410443
1.516 0.067819089 -0.024620498 13971760
1.513 0.004086569 -0.039255332 16402251
1.513 0.045670077 -0.080858745 4074279
1.574 -0.12807351 0.015172378 12525854
1.516 0.060466267 -0.012359938 13119284
1.527 0.075717345 -0.0099797165 12136757
1.55 -0.08853206 0.0049126069 13119282
1.516 0.031055 -0.044237394 16399171
1.598 -0.10160774 0.03608169 7150876
1.513 0.12394492 -0.017229998 12202809
1.494 0.15378827 -0.079843335 3221277
1.459 0.11244489 -0.068533182 15565970
1.546 -0.040814225 -0.065117896 4727068
1.5700001 -0.14551573 -0.035655309 3218716
1.513 0.089699678 -0.095542304 7222841
1.513 0.035885725 -0.07841149 3942690
1.513 -0.025266496 -0.051491633 7143680
1.5779999 -0.15646191 -0.017970216 10031892
1.5700001 -0.054139033 0.012594365 11279136
1.5700001 -0.10236562 -0.038194764 6821404
1.586 -0.067511313 -0.074498713 8133143
1.473 0.10399818 -0.038217518 13835821
1.5089999 -0.02763932 -0.044033132 13444389
1.594 -0.14516313 0.05146103 5318441
1.527 -0.037843905 -0.019859334 14166318
1.535 -0.030597201 -0.064654574 4269345
1.636 -0.048480105 0.029001072 7217184
1.5779999 -0.087580174 -0.063913353 11630952
1.516 0.00899655 -0.056497954 8061700
1.562 -0.099318705 -0.03042059 12594218
1.4529999 0.10728429 -0.047099452 16003142
1.494 0.093403988 -0.026679736 13117231
1.52 0.033594344 -0.01239255 13445426
1.524 -0.0057392111 -0.069121353 3809826
1.4910001 0.14142685 -0.067624636 3538944
1.52 0.1392628 -0.017309714 10831428
1.5779999 -0.16411543 -0.038389385 4204322
1.586 -0.10853706 0.028114732 9311768
1.55 -0.098555692 0.0024055003 12918822
1.558 -0.078913637 -0.027822642 14364728
1.586 -0.02392146 0.015288051 9841192
1.594 -0.1554713 -0.059404843 7945782
1.473 0.1301938 -0.050130319 13059405
1.505 0.11599009 -0.095037125 7956844
1.52 0.10731652 -0.0074753859 8722198
1.459 0.12188003 -0.063813351 14567757
1.535 0.068669058 -0.052240353 15215158
1.456 0.11692154 -0.058972012 14765405
1.484 0.10237561 -0.028901508 14564677
1.524 0.02382726 -0.017355265 14695223
1.513 0.14351363 -0.039255332 12079183
1.531 -0.00081519311 -0.0050531095 12919850
1.505 0.086792238 -0.085299842 4271407
1.513 0.092145763 -0.014782738 11279647
1.494 0.15378827 -0.096759029 1840399
1.513 0.060346611 -0.029466296 15744323
1.502 -0.015369582 -0.051117271 8126723
1.473 0.11114244 -0.038217518 14951733
1.498 0.14451267 -0.092172094 4142901
1.494 -0.0080416063 -0.041178901 16334920
1.52 0.065540619 -0.091067173 6169635
1.546 0.0091745816 0.012401839 8792874
1.539 -0.055558167 -0.027483342 16008019
1.513 0.033439636 -0.075964227 4929073
1.61 -0.12059113 0.038956799 6953238
1.4630001 0.12221418 -0.066354685 13384510
1.59 -0.16536346 -0.054112159 8863802
1.516 0.11193599 -0.012359938 11416373
1.4910001 0.16312154 -0.067624636 5391425
1.527 0.11274819 -0.00010009867 7152157
1.631 -0.064153105 0.028912438 7280920
1.505 0.098958008 -0.019573214 12658733
1.524 0.060785353 -0.0074950578 13188162
1.4630001 0.098561645 -0.071087457 9571097
1.61 -0.12839985 0.041560955 6756631
1.558 -0.10158321 -0.017742457 14037304
1.527 0.016467996 -0.084076852 8200486
1.562 -0.11194524 -0.017788008 14693691
1.449 0.10230371 -0.051657274 15805761
1.543 -0.045724206 -0.010084284 14299962
1.52 -0.022925988 -0.059105609 3411206
1.466 0.096393652 -0.066490754 15158102
1.558 -0.048687547 0.0049379622 12591916
1.524 0.05832148 -0.093771875 8791591
1.61 -0.060724191 0.025936019 8725798
1.558 -0.16203539 0.0074580088 11345709
1.574 -0.17642297 -0.023016516 6577758
1.574 -0.089902885 -0.05611356 7364180
1.574 -0.16115472 -0.0051950323 13839665
1.535 -0.05293211 -0.042308975 11147540
1.473 0.094472498 -0.04060008 14097966
1.494 0.13929604 -0.091925971 5129285
1.494 0.13929604 -0.046011955 12276815
1.602 -0.091502175 0.033580791 7742756
1.59 -0.059969854 0.020470221 10957105
1.627 -0.10608208 -0.071161292 9184550
1.535 0.081077345 -0.00010062308 8197137
1.574 -0.11789467 -0.04847578 11703703
1.5089999 0.038230471 -0.029388394 15216700
1.516 0.055564389 -0.0099078258 13121081
1.498 0.16630921 -0.084903099 6512216
1.524 0.021363389 -0.032145578 15546179
1.48 0.11884882 -0.038399138 16271445
1.5089999 0.118738 -0.017184446 11545390
1.598 -0.16102846 -0.056969166 8469299
1.562 -0.11952117 -0.020314524 13839661
1.574 -0.069545217 0.017718304 11413293
1.527 -0.023031568 -0.061847709 4598051
1.623 -0.11369306 0.044521723 4855571
1.524 -0.0008114659 -0.069121353 3481888
1.4910001 0.11732164 -0.029037837 12918312
1.59 -0.059969854 0.023042027 8986399
1.55 -0.030896196 -0.07782191 9379611
1.513 0.0848075 -0.090647787 5125171
1.473 0.12304954 -0.042982638 15618396
1.59 -0.041975822 0.020470221 8198940
1.566 -0.12995434 -0.0077016144 13313830
1.614 -0.13132824 0.052106716 4135192
1.516 0.058015328 -0.019716274 13839922
1.562 -0.11447055 -0.012734976 13904688
1.5700001 -0.11251859 0.020212734 11936807
1.543 -0.060691748 -0.022563206 15153215
1.562 -0.11952117 0.0024241235 12853281
1.52 0.026222128 -0.022226878 14364463
1.558 -0.088989004 -0.025302596 13707309
1.539 0.0091330409 0.0048777433 10890029
1.574 -0.16878885 -0.02810837 2234390
1.513 0.035885725 -0.046597112 16727624
1.516 0.10948505 -0.012359938 11350323
1.531 -0.050318986 -0.042198725 11475224
1.498 -0.022594165 -0.041289151 15152437
1.524 0.075568587 -0.10609713 4392198
1.502 0.14247024 -0.046258338 12279636
1.543 -0.055702567 -0.045025263 7996160
1.527 0.026342887 -0.089016654 7280670
1.494 0.14895752 -0.079843335 8219228
1.539 0.034014273 0.0048777433 9973807
1.554 -0.058612045 -0.067968436 8791845
1.527 0.083123513 -0.0075098118 12666181
1.524 -0.0032753386 -0.0074950578 13116714
1.527 0.11027946 -0.00010009867 6427664
1.456 0.09809006 -0.051906824 16734563
1.539 -0.025700686 -0.0050795139 12722471
1.5700001 -0.13536276 -0.022958025 10424856
1.5779999 -0.15135956 0.022868125 11543850
1.562 -0.074065626 -0.043053173 8795952
1.554 -0.063636795 -0.060427707 5120286
1.513 0.10193012 -0.014782738 11873844
1.524 0.10513506 -0.10856219 7342348
1.574 -0.13061821 0.010080526 12591136
1.531 -0.023091901 -0.066962466 4531747
1.614 -0.1469845 -0.065371446 5979191
1.574 -0.14588647 -0.023016516 8127493
1.5700001 -0.0084506832 -0.088983893 6098954
1.562 -0.086692169 -0.03042059 12987696
1.52 0.067998029 -0.019768296 13644337
1.543 -0.040735025 -0.062495753 4335141
1.558 -0.0033484104 -0.085783713 8658458
1.524 0.0657131 -0.096236929 7936796
1.516 0.065368146 -0.034428947 15283772
1.498 0.14935634 -0.060673129 12824719
1.558 -0.081432484 0.0049379622 12923702
1.614 -0.04260942 0.023389831 7937823
1.598 -0.11194178 0.033496946 8330013
1.505 0.040562287 -0.026876172 13572390
1.554 -0.096297659 -0.0026154451 13774393
1.566 -0.059064645 0.010029291 12658733
1.543 -0.025767485 -0.074974671 8593694
1.527 -0.042781353 -0.029738951 15481926
1.631 -0.09315858 -0.076612487 6038814
1.543 -0.048218798 -0.010084284 14431548
1.524 0.05832148 -0.096236929 7737106
1.546 -0.023318144 -0.080121718 8524819
1.527 0.060905006 -0.066787519 8717321
1.535 0.093485624 -0.00010062308 11152165
1.52 0.03605175 -0.014851131 14366269
1.516 0.023702184 -0.073662736 4205611
1.516 0.10458317 -0.0099078258 9969697
1.48 0.13559799 -0.069519609 5047040
1.5700001 -0.14297749 0.0075154519 13313588
1.4630001 0.096196391 -0.061621916 16737646
1.52 0.016392505 -0.059105609 7143944
1.582 -0.14151266 0.020367226 12594485
1.516 0.031055 -0.063854292 5111808
1.531 0.16007213 -0.029816853 3873817
1.531 0.14027062 -0.010005858 9323838
1.535 0.081077345 -0.0025834674 8722453
1.516 0.021251244 -0.051593728 15481669
1.546 0.0091745816 0.0099012023 9513515
1.516 -0.037571292 -0.044237394 11869217
1.55 -0.068484806 -0.010130033 14297653
1.505 0.14032164 -0.03904777 12076360
1.449 0.10464633 -0.061032236 16205161
1.562 -0.056388471 0.0049506398 12196129
1.52 0.018849911 -0.073857099 4007971
1.4910001 0.12696372 -0.086918034 4662053
1.535 0.0041459901 -0.0025834674 12329257
1.558 -0.091507845 -0.010182317 13708085
1.487 0.095370404 -0.028959936 13642035
1.543 -0.030756665 -0.0025969318 13643832
1.531 0.083341256 0.0098051364 5838868
1.527 0.078186065 -0.0099797165 12729151
1.513 0.12883709 -0.019677257 11940665
1.582 -0.1619738 -0.0231335 5115404
1.516 0.07272096 -0.029524721 14167599
1.55 -0.003331217 0.0099268202 10299689
1.513 0.060346611 -0.027019037 14889528
1.524 0.021363389 -0.027215473 15349565
1.449 0.10698894 -0.051657274 15609413
1.52 -0.040127829 -0.032061204 15151932
1.627 -0.10871247 0.041999798 5643290
1.535 0.1232655 -0.007549156 8855328
1.5700001 -0.13536276 -0.010260743 13445929
1.527 0.055967562 -0.00010009867 10301735
1.505 0.13788849 -0.097471446 3157805
1.4630001 0.11984892 -0.047423605 15155794
1.498 -0.017750489 -0.034020159 15281470
1.4529999 0.10258612 -0.061200716 15084358
1.516 0.00899655 -0.054045841 11805480
1.516 0.058015328 -0.083471186 4205611
1.5089999 0.14069459 -0.034269974 11747910
1.498 0.081544876 -0.031597164 14035764
1.527 -0.027969014 -0.059377804 4136473
1.524 0.078032464 -0.059261147 15085882
1.4910001 0.13660581 -0.043507885 13325398
1.562 -0.11447055 -0.0076819425 13050149
1.6059999 -0.091730639 -0.0702428 7744545
1.5089999 0.096781403 -0.092848927 5914948
1.6059999 -0.099519968 -0.06764511 9381668
1.52 0.026222128 -0.044354115 15742270
1.586 -0.067511313 -0.077064052 6954778
1.59 -0.090816766 0.02818564 8198423
1.558 -0.038612183 -0.080743618 7281175
1.527 -0.040312629 -0.024799142 15152700
1.527 0.097935848 -0.0050399075 9380631
1.574 -0.15097588 -0.015378738 12392736
1.473 0.092091076 -0.066808239 12920362
1.627 -0.10871247 -0.073792942 7022374
1.513 -0.00080560887 -0.058833409 4916485
1.602 -0.14071172 0.059492953 2366238
1.4529999 0.11198246 -0.051799875 16733545
1.456 0.11692154 -0.063682139 14305616
1.516 0.099681295 -0.0099078258 10364453
1.562 -0.018508853 0.010003673 11413291
1.614 -0.024343779 0.020779205 6953491
1.574 -0.16115472 -0.0077409586 11998231
1.527 0.06337373 -0.069257423 6356992
1.574 -0.041553423 0.015172378 11220024
1.5779999 -0.16921778 -0.033284593 3090213
1.527 0.13743542 -0.014919525 10634306
1.4910001 0.14383738 -0.067624636 3805440
1.52 0.045881376 -0.088608593 7611688
1.562 -0.074065626 -0.040526658 10104617
1.456 0.11221367 -0.049551763 16468572
1.562 -0.041236624 0.012530189 11611702
1.614 -0.14176574 -0.065371446 7093809
1.505 0.13788849 -0.099905759 2697252
1.594 -0.049812548 0.023099994 8659489
1.527 0.095467128 -0.0075098118 12799556
1.535 -0.00081732293 -0.0025834674 12263460
1.566 -0.17046273 -0.0051686279 12348787
1.487 0.088158242 -0.040985961 14689590
1.52 0.011477693 -0.071398519 3942433
1.524 -0.01313083 -0.064191252 3413785
1.516 0.028604062 -0.073662736 3810594
1.52 0.15892205 -0.041895535 7429444
1.531 0.15759695 -0.032293227 6238765
1.558 -0.031055661 0.0074580088 11542310
1.61 -0.11017948 0.038956799 6297879
1.566 -0.10716837 -0.033031479 9834262
1.524 0.063249223 -0.10116703 5636608
1.48 0.11406335 -0.038399138 14820147
1.52 0.0016480698 -0.066481352 3151892
1.574 -0.14588647 -0.0051950323 13511208
1.513 0.035885725 -0.068622448 3475972
1.5779999 -0.064619601 -0.076675333 7217180
1.594 -0.13743199 0.030834822 10231329
1.524 0.04846599 -0.0025649539 11219244
1.566 -0.10970014 -0.038097452 9390671
1.554 -0.07871104 -0.025237635 14627900
1.516 0.14379819 -0.034428947 11880777
1.524 0.026291134 -0.012425162 14103094
1.494 0.15620364 -0.079843335 3353123
1.524 0.021363389 -0.024750421 14560817
1.505 0.045428596 -0.029310493 16203342
1.562 -0.11699586 -0.000102393 13577004
1.614 -0.053046927 0.026000457 8200482
1.513 0.079915322 -0.05638615 15018547
1.5779999 -0.14115486 0.015210936 11672356
1.505 -0.01053397 -0.029310493 15609415
1.59 -0.13965771 0.030757446 10033950
1.524 0.043538243 -0.093771875 8130065
1.594 -0.08589115 0.030834822 7938335
1.543 0.03160809 0.0098819891 8596265
1.539 0.0016686707 0.0048777433 11283501
1.531 0.1204691 -0.0050531095 8660519
1.55 -0.098555692 0.012433927 13184817
1.535 0.0041459901 -0.0050663115 12590119
1.48 0.090135977 -0.043186903 15017528
1.623 -0.090077713 0.039271358 5970203
1.574 -0.1255288 -0.04847578 7550785
1.574 -0.074634634 -0.066297263 8460827
1.484 0.13596447 -0.079308912 7158326
1.502 0.18132313 -0.065694071 8157305
1.524 0.050929859 -0.093771875 8132634
1.52 -0.032755613 -0.049271278 7274496
1.558 -0.043649867 -0.078223571 8330516
1.524 0.10267118 -0.0050300057 8000528
1.558 -0.043649867 0.0074580088 12527411
1.5700001 -0.14805397 0.0024365389 12787496
1.513 0.033439636 -0.07106971 3084812
1.554 -0.066149168 -0.055400554 3415068
1.498 0.093654066 -0.087326095 4076082
1.5089999 -0.025199698 -0.029388394 15020085
1.524 0.04846599 -0.10116703 3604480
1.61 -0.13360567 0.057185892 2561815
1.527 0.01893672 -0.01738943 13905969
1.5700001 -0.059215516 -0.076286606 8135453
1.502 0.13275702 -0.099706613 2038294
1.498 -0.020172328 -0.041289151 14955058
1.5700001 -0.061753757 0.012594365 12068652
1.5700001 -0.10490386 -0.035655309 6946821
1.524 -0.0082030836 -0.071586408 4792609
1.566 -0.12995434 0.0074963039 13116710
1.5779999 -0.16411543 -0.0281798 3219229
1.524 0.06817697 -0.10363209 4850692
1.558 -0.10410205 -0.010182317 11864852
1.539 0.068847999 -0.0025901995 11089465
1.566 -0.10970014 -0.043163426 11245977
1.554 -0.071173914 -0.0051290216 13970998
1.574 -0.14588647 0.0049886731 13378611
1.524 0.082960203 -0.10116703 7871003
1.586 -0.10340884 0.028114732 8918550
1.594 -0.12454679 0.030834822 9903904
1.516 0.06291721 -0.034428947 15283261
1.456 0.10515187 -0.047196697 14357804
1.516 0.028604062 -0.061402179 7734537
1.55 -0.1010616 0.0074197133 12196380
1.539 0.0066449177 0.0073670573 9971238
1.513 0.17775887 -0.049044371 12168886
1.566 -0.079318844 -0.058361344 7687751
1.466 0.12483489 -0.052263327 14305363
1.5700001 -0.087136172 -0.038194764 9185572
1.602 -0.14071172 -0.0622942 8206640
1.614 -0.14959387 -0.065371446 5322034
1.55 -0.070990711 -0.022665566 15021118
1.55 -0.098555692 0.014941033 12264743
1.627 -0.079778135 0.036736492 5903893
1.535 0.10093059 -0.00010062308 6556162
1.4910001 0.1245532 -0.086918034 3019029
1.543 0.026618911 0.0098819891 8924971
1.582 -0.011072917 0.017808359 8333345
1.516 0.043309696 -0.071210623 3279111
1.558 -0.10913973 -0.00010213079 13839665
1.516 0.070270024 -0.034428947 14823735
1.498 0.1275598 -0.09459509 6839901
1.524 0.11006281 -0.0025649539 7148817
1.546 -0.063309193 -0.030108985 13508396
1.516 -0.035120353 -0.046689507 10096402
1.524 0.11499055 -0.0050300057 9515825
1.524 0.05832148 -0.044470835 15937341
1.562 -0.071540318 -0.063265301 7478301
1.5700001 -0.16074517 0.0024365389 12591398
1.5779999 -0.17432013 -0.030732198 3025190
1.498 0.081544876 -0.041289151 15150652
1.55 -0.1010616 0.0024055003 13050149
1.502 0.18132313 -0.063264608 6511449
1.546 -0.058310308 -0.0076032542 14563134
1.5779999 -0.036556672 0.015210936 10760500
1.513 -0.037496943 -0.041702595 14562620
1.531 -0.050318986 -0.039722349 14235444
1.494 0.14654216 -0.075010285 8743252
1.535 0.01159096 -0.082034484 8334641
1.524 0.078032464 -0.056796096 15413818
1.52 0.063083217 -0.076315679 2753284
1.531 0.021461515 -0.089249834 7674401
1.473 0.092091076 -0.04060008 14689590
1.487 0.088158242 -0.043391164 15280698
1.535 -0.050450455 -0.047274664 6750208
1.546 -0.035815347 -0.070119172 7152410
1.459 0.1100861 -0.044934031 15411775
1.562 -0.04881255 0.010003673 12198959
1.494 0.14412679 -0.062927648 6960673
1.614 -0.14437512 -0.067982078 5586225
1.535 -0.028115544 -0.064654574 4072736
1.487 0.088158242 -0.072253622 6356992
1.543 0.036597271 0.0098819891 8071204
1.535 -0.030597201 -0.06713742 4858652
1.477 0.12577158 -0.043099362 13515847
1.513 0.038331814 -0.051491633 16201792
1.47 0.12279893 -0.073805295 6030338
1.562 -0.1624514 0.0024241235 12791864
1.5700001 -0.10998034 -0.045813132 12102828
1.494 0.098234728 -0.026679736 13378861
1.494 0.10306547 -0.024263209 12986672
1.6059999 -0.13587017 -0.062449742 8137765
1.52 0.17366648 -0.044354115 1971229
1.535 -0.05293211 -0.022446223 14429752
1.55 -0.063472994 -0.040215313 11279898
1.586 -0.14443459 0.028114732 11148581
1.531 0.11799391 -0.00010036088 5771535
1.473 0.092091076 -0.042982638 14689333
1.558 -0.091507845 -0.005142224 14827077
1.494 -0.0080416063 -0.038762372 15412537
1.513 0.050562255 -0.034360815 15280698
1.554 -0.07871104 -0.02021048 14365241
1.516 0.070270024 -0.090827525 6763828
1.562 -0.12204648 -0.020314524 14563899
1.5089999 -0.00080347899 -0.048914712 12917283
1.52 0.03605175 -0.086150005 7218213
1.505 0.10869063 -0.017138895 11872815
1.535 -0.018188918 -0.074585952 7743524
1.502 0.12304381 -0.026822599 13645374
1.574 -0.1560653 -0.00010317963 12592680
1.558 -0.10662089 0.017538195 11805219
1.5700001 -0.10236562 -0.04073422 4394771
1.554 -0.028463555 -0.083049893 8069921
1.55 -0.091037974 0.014941033 12331565
1.562 -0.094268091 0.022636255 9968155
1.5089999 0.050428584 -0.026947604 14954556
1.524 0.0090440251 -0.078981563 7219242
1.531 0.028887084 -0.096678957 4129280
1.535 -0.05293211 -0.02741191 14561086
1.598 -0.14294389 0.056759659 3218976
1.466 0.12483489 -0.057005804 14307421
1.586 -0.067511313 0.02298406 9511200
1.502 0.14732686 -0.055976205 13212286
1.498 0.093654066 -0.084903099 3416355
1.516 0.023702184 -0.051593728 14363186
1.5089999 0.038230471 -0.019625235 14562620
1.55 -0.023378475 0.0049126069 12330282
1.554 -0.10634715 0.014979591 11343641
1.516 0.097230352 -0.098183855 6954012
1.473 0.1182867 -0.04060008 15020095
1.614 -0.13393761 -0.067982078 6173734
1.558 0.014283476 0.015018148 7151642
1.531 0.088291638 0.0023760134 11876406
1.5700001 -0.13536276 -0.012800199 13643307
1.582 -0.13895503 0.022926092 11607074
1.484 0.095178001 -0.079308912 3672589
1.586 -0.10084473 0.030680068 8330522
1.524 0.0090440251 -0.029680526 15415874
1.5089999 -0.030078942 -0.044033132 13116453
1.546 -0.010820942 0.0023992925 12134186
1.59 -0.057399277 0.020470221 9970724
1.459 0.098292165 -0.047293946 16736364
1.594 -0.078160018 0.02567827 9183262
1.586 -0.12904993 0.02298406 11542047
1.562 -0.094268091 0.020109739 11347752
1.535 -0.05293211 -0.024929065 14363194
1.513 0.045670077 -0.075964227 3480348
1.562 -0.11447055 -0.0026289094 13115942
1.602 -0.091502175 0.03617201 6428184
1.59 -0.065111004 0.023042027 9445921
1.531 0.0066103758 -0.076867968 5842728
1.566 -0.051469322 -0.078625232 7610649
1.473 0.1182867 -0.078721039 3802884
1.494 0.14171141 -0.060511116 11361873
1.566 -0.13248612 0.0024303312 13050660
1.516 0.023702184 -0.054045841 12390422
1.52 -0.00080933602 -0.017309714 14628411
1.5779999 -0.16156426 -0.017970216 8654348
1.494 0.15620364 -0.084676392 4931391
1.566 -0.084382392 -0.033031479 12463151
1.527 0.01893672 -0.034678761 15874375
1.456 0.10279793 -0.047196697 15871554
1.498 0.17115289 -0.06794212 6381410
1.59 -0.057399277 -0.082402028 5579294
1.543 0.0091567785 0.0023946366 11676978
1.52 -0.01063896 -0.014851131 13773104
1.562 -0.066489704 -0.065791823 8922150
1.546 0.0066751414 -0.092624903 5115147
1.5700001 -0.13790101 -0.015339656 13775663
1.586 -0.14956281 0.030680068 10494761
1.513 0.004086569 -0.041702595 16007492
1.502 0.17646651 -0.072982475 8093568
1.574 -0.15097588 -0.017924665 11408666
1.539 0.031526152 0.0048777433 9644329
1.543 0.011651369 0.0098819891 9185831
1.502 0.13032871 -0.026822599 13910864
1.524 0.01397177 -0.042005785 15217214
1.562 0.01179484 0.015056706 7019544
1.494 0.16344975 -0.082259864 6905436
1.494 0.14171141 -0.062927648 8600367
1.524 0.10267118 -0.10856219 7605521
1.566 -0.089445941 -0.050762385 9141880
1.546 -0.048312549 -0.057615988 5124657
1.516 0.16095477 -0.051593728 12496786
1.524 0.055857606 -0.074051462 3409674
1.531 -0.032992657 -0.017434981 14890303
1.524 0.050929859 -0.10116703 4129281
1.52 0.018849911 -0.061564188 5767683
1.5700001 -0.10490386 -0.038194764 8466746
1.524 0.0016524068 -0.069121353 3284509
1.558 -0.083951324 -0.01522241 14496322
1.55 -0.055955268 -0.002608713 13512499
1.554 -0.028463555 0.0074388613 11739689
1.554 -0.056099672 -0.065454863 6890273
1.535 0.12822881 -0.0025834674 6295569
1.5779999 -0.14625721 0.015210936 12724274
1.546 0.16413988 -0.022607075 5584944
1.6059999 -0.12548441 -0.062449742 10431276
1.52 0.011477693 -0.054188441 10159628
1.562 -0.12204648 0.0074771564 12327448
1.582 -0.16708909 -0.04360443 6369060
1.574 -0.1535206 0.035539787 9121847
1.513 0.043223992 -0.07841149 3285022
1.516 0.045760635 -0.044237394 16265023
1.562 -0.076590933 0.012530189 11477030
1.562 0.0067442241 0.015056706 7676191
1.516 0.065368146 -0.02707261 14036013
1.558 -0.10158321 -0.022782549 14170429
1.562 -0.12457179 -0.035473622 4920092
1.516 0.089877538 -0.012359938 12202546
1.513 0.030993545 -0.051491633 14361128
1.516 0.040858757 -0.044237394 16331070
1.52 0.14909242 -0.036978368 10111555
1.459 0.12188003 -0.054373689 14039624
1.459 0.11952125 -0.061453436 15158615
1.4630001 0.096196391 -0.049789991 15416133
1.516 0.10703411 -0.012359938 10362915
1.524 -0.037769556 -0.02228537 15021368
1.513 0.030993545 -0.049044371 16268098
1.4910001 0.11491112 -0.086918034 2629915
1.543 -0.013294534 -0.077470459 8267298
1.614 -0.15220325 -0.065371446 7428180
1.598 -0.1171088 0.033496946 8394777
1.5700001 -0.092212655 -0.033115849 12927295
1.586 -0.14956281 0.040941413 7544353
1.516 0.0016437328 -0.061402179 3671298
1.574 -0.13825235 0.010080526 12196386
1.524 -0.015594702 -0.017355265 14890303
1.562 -0.11447055 -0.022841042 14562359
1.513 0.15329799 -0.046597112 14334358
1.546 -0.06080975 -0.047613442 6227204
1.566 -0.15780386 0.017628251 11147299
1.524 0.073104717 -0.014890213 12790833
1.61 -0.078944564 0.028540175 7936534
1.527 -0.030437738 -0.059377804 4268575
1.527 0.016467996 -0.034678761 14953273
1.535 0.083558999 0.0023822212 7341827
1.498 -0.01532865 -0.034020159 14688309
1.539 0.093729235 0.0073670573 8331803
1.5779999 -0.13350134 0.015210936 12263713
1.4529999 0.11433155 -0.051799875 16734315
1.5779999 -0.079926655 0.022868125 9904417
1.5089999 0.17240968 -0.058677871 7957355
1.4910001 0.13178477 -0.038684536 13584470
1.473 0.1182867 -0.042982638 15612234
1.574 -0.12807351 0.012626452 12789026
1.487 0.085754186 -0.043391164 14293803
1.527 -0.037843905 -0.05196809 5703945
1.473 0.1301938 -0.062043119 13258827
1.487 0.085754186 -0.048201572 14950192
1.554 -0.071173914 -0.037805516 11740449
1.52 0.072912842 -0.022226878 14761789
1.516 0.031055 -0.081019074 5384998
1.516 0.038407817 -0.081019074 4203806
1.531 -0.037943039 -0.017434981 14232372
1.566 -0.11729547 -0.043163426 11443871
1.527 0.15965392 -0.03961857 6375994
1.5700001 -0.13790101 -0.010260743 13577515
1.494 0.14654216 -0.072593756 6638388
1.582 -0.077571616 -0.066634223 8791845
1.502 0.15946838 -0.09727715 1577227
1.6059999 -0.042398218 -0.088426597 3940123
1.524 0.055857606 -0.069121353 5046272
1.527 0.031280335 -0.0075098118 12461102
1.543 -0.043229617 -0.062495753 4203040
1.6059999 -0.0112409 -0.093621969 4001802
1.546 -0.035815347 -0.072619811 8528922
1.524 0.021363389 -0.044470835 15281980
1.52 0.050796185 -0.066481352 7341578
1.602 -0.11999191 0.03617201 7607317
1.524 0.07064084 -0.10363209 5441802
1.516 0.13399443 -0.019716274 11746368
1.524 -0.037769556 -0.049400941 6815747
1.52 0.050796185 -0.0074753859 12991033
1.487 0.092966348 -0.031365141 13312302
1.502 0.093904145 -0.021963665 12722983
1.5700001 -0.059215516 -0.073747151 8328722
1.566 -0.11476369 0.017628251 12066594
1.527 -0.040312629 -0.022329237 15021881
1.535 0.10341226 -0.00010062308 7018001
1.558 -0.16959192 -0.00010213079 11496563
1.531 0.051163789 0.0048523876 9252904
1.513 0.11905275 -0.10043682 8012357
1.566 -0.089445941 -0.043163426 13872548
1.516 0.099681295 -0.098183855 7548207
1.48 0.11884882 -0.036005255 16206933
1.558 -0.11417741 0.009978055 13183021
1.527 -0.013156678 -0.0075098118 14037050
1.513 0.033439636 -0.068622448 3673865
1.566 -0.11729547 0.015095264 12526374
1.527 0.031280335 -0.0099797165 14104126
1.582 -0.13128209 -0.053839896 10233648
1.516 0.033505939 -0.083471186 6959150
1.531 0.11799391 -0.0075294841 9579308
1.513 0.075023144 -0.085753262 5193535
1.5779999 -0.087580174 0.02542052 9577509
1.513 0.004086569 -0.051491633 11669785
1.516 0.06291721 -0.024620498 14561589
1.494 0.095819362 -0.026679736 13445424
1.527 0.068311177 -0.044558376 15280951
1.531 0.068490118 -0.057056971 15216187
1.527 0.033749055 -0.096426368 5440771
1.531 0.16007213 -0.027340479 5847091
1.466 0.096393652 -0.042778376 16005961
1.574 -0.14588647 -0.0077409586 13445928
1.55 -0.09354388 0.0024055003 12920362
1.61 -0.065930009 0.025936019 8527390
1.4529999 0.10023703 -0.058850504 15413824
1.5779999 -0.15391074 -0.020522613 8521224
1.594 -0.11423862 -0.056826565 11357518
1.574 -0.084813468 -0.05611356 5914940
1.55 -0.020872569 0.0024055003 11868704
1.574 -0.1535206 -0.03574615 3746343
1.566 -0.11982724 -0.030498492 9573146
1.598 -0.083523177 -0.069892898 8005407
1.524 0.011507898 -0.078981563 6365474
1.47 0.11329265 -0.076183006 6030605
1.535 0.066187404 -0.052240353 15544639
1.524 0.078032464 -0.014890213 12462897
1.5700001 -0.13790101 -0.043273676 4925487
1.524 0.08542408 -0.10363209 7739933
1.5089999 -0.00080347899 -0.0513555 11605280
1.554 -0.063636795 -0.0051290216 13443888
1.5700001 -0.14805397 -0.043273676 4791069
1.627 -0.069256559 0.031473186 7611938
1.558 -0.078913637 -0.030342689 14695233
1.5089999 0.055307828 -0.031829182 15347773
1.636 -0.12253856 -0.071554929 7087652
1.524 0.0090440251 -0.027215473 16467792
1.558 -0.088989004 -0.01522241 14300224
1.558 -0.010904933 0.012498102 10037543
1.574 -0.1535206 -0.012832811 12920362
1.619 -0.040123958 0.02346229 8398887
1.586 -0.14187047 0.028114732 10622750
1.619 -0.12126523 0.044411998 5774104
1.498 0.16630921 -0.075211115 9011070
1.539 -0.043117549 -0.059844427 3940899
1.494 0.16344975 -0.06534417 5259582
1.562 -0.07911624 -0.048106205 11112585
1.531 0.0734405 -0.054580595 14819885
1.598 -0.13777688 0.049005423 6103588
1.5700001 -0.14551573 -0.045813132 7217960
1.494 0.16344975 -0.084676392 6050384
1.516 0.023702184 -0.058950067 8848907
1.502 0.13518533 -0.034111001 12599628
1.524 0.060785353 -0.071586408 4588033
1.48 0.092528716 -0.074307375 5309185
1.527 -0.0156254 -0.071727328 5318176
1.466 0.127205 -0.04989209 13584463
1.498 0.16873105 -0.080057107 8618103
1.5089999 0.079704046 -0.075763397 4195332
1.524 -0.035305683 -0.049400941 6750208
1.582 -0.14407031 0.022926092 11014426
1.524 0.080496334 -0.0099601094 12138297
1.594 -0.11166158 -0.056826565 11357519
1.562 -0.07911624 -0.043053173 12945791
1.582 -0.15174323 -0.053839896 9318185
1.614 -0.13915637 -0.067982078 5848108
1.535 -0.035560515 -0.010032 13905205
1.535 -0.028115544 -0.007549156 13247788
1.55 -0.08853206 0.01744814 11346469
1.513 0.079915322 -0.058833409 15150905
1.513 -0.025266496 -0.022124518 15152704
1.5089999 0.035790849 -0.026947604 15019835
1.498 0.14209083 -0.048558142 11556427
1.558 -0.10158321 -0.010182317 14891330
1.527 0.0090618283 -0.014919525 14825537
1.543 0.041586451 0.0098819891 8400683
1.5779999 -0.067170776 0.015210936 11609643
1.562 -0.071540318 -0.058212273 4464925
1.55 -0.040919825 -0.0051158196 12657191
1.494 0.14171141 -0.082259864 7030333
1.535 0.068669058 -0.054723199 15675455
1.64 -0.080415577 0.039682701 5445399
1.5779999 -0.074824303 0.020315729 9507090
1.52 0.033594344 -0.017309714 12457758
1.494 0.13929604 -0.089509442 5521473
1.5700001 -0.14297749 -0.00010291742 14299446
1.558 -0.00082956947 -0.085783713 8132114
1.5779999 -0.16921778 -0.017970216 5967117
1.562 -0.11699586 0.0074771564 13511470
1.5089999 0.045549337 -0.017184446 13709368
1.524 0.036146626 -0.088841774 8528422
1.554 -0.10383478 0.014979591 12331048
1.5700001 0.0017022826 0.017673276 7545888
1.5089999 0.12605686 -0.097730502 6376782
1.574 -0.097537011 -0.053567633 5384747
1.5700001 -0.17343639 -0.0077212867 10053740
1.5700001 -0.099827379 -0.04073422 4460046
1.562 -0.084166855 0.017583223 11742510
1.516 0.043309696 -0.085923299 6037536
1.494 0.15378827 -0.082259864 3944233
1.516 0.031055 -0.061402179 8061960
1.524 0.053393733 -0.098701976 6162700
1.524 -0.0082030836 -0.0099601094 14497341
1.527 0.0090618283 -0.019859334 15088960
1.52 0.070455432 -0.093525752 7284520
1.5089999 0.001636143 -0.0513555 12197158
1.566 -0.086914167 -0.045696411 12756894
1.524 0.05832148 -0.0074950578 11412516
1.513 0.055454433 -0.027019037 13705256
1.636 -0.13576329 -0.071554929 5586480
1.524 -0.020522447 -0.014890213 13443373
1.535 -0.0032989795 -0.0025834674 12263973
1.55 -0.033402104 -0.07782191 9182486
1.502 0.16675329 -0.092418216 7563624
1.558 -0.10662089 -0.0026221774 13050149
1.539 -0.058046293 -0.037440598 14959937
1.627 -0.10608208 0.044631451 4396563
1.562 -0.089217477 -0.03042059 13251638
1.562 -0.069015011 0.0049506398 13119284
1.494 0.16586512 -0.070177227 5524043
1.527 0.026342887 -0.091486558 6162700
1.498 0.091232225 -0.084903099 3679270
1.558 -0.046168707 0.0074580088 12790069
1.524 -0.018058574 -0.017355265 15350854
1.535 0.033925869 0.0023822212 9247515
1.513 0.055454433 -0.014782738 12724274
1.498 0.086388551 -0.082480103 3282971
1.473 0.099235341 -0.078721039 4195340
1.55 -0.068484806 -0.025172673 14627900
1.527 0.016467996 -0.081606947 7216932
1.52 0.053253591 -0.088608593 7748154
1.4910001 0.093216427 -0.082094684 3216408
1.6059999 -0.1306773 0.036262326 7803667
1.574 -0.15097588 -0.045929853 7809835
1.47 0.12517551 -0.071427591 8131864
1.574 -0.1560653 -0.010286885 13644339
1.498 -0.0032194601 -0.041289151 15611195
1.4910001 0.12214268 -0.084506355 4135968
1.527 0.0090618283 -0.01244962 13443627
1.562 -0.091742784 -0.027894074 13116714
1.498 0.081544876 -0.046135146 14952756
1.546 -0.038314786 -0.0051026177 12722730
1.554 -0.030975929 0.002411708 12592686
1.52 0.13680539 -0.017309714 11158340
1.535 0.06370575 -0.052240353 14755637
1.546 0.16663933 -0.027608348 1968901
1.52 0.063083217 -0.039436951 14558257
1.5779999 -0.15901309 -0.038389385 4335392
1.554 -0.068661541 -0.032778364 14631234
1.546 -0.065808631 -0.015105165 14363186
1.535 -0.035560515 -0.059688885 3940383
1.543 -0.033251256 -0.0050927158 13577782
1.5700001 -0.099827379 0.025291646 9509659
1.516 0.065368146 -0.081019074 4008235
1.554 -0.020926433 0.0074388613 11673894
1.498 0.08396671 -0.029174164 13905464
1.61 -0.086753294 0.033748489 6953497
1.527 0.013999274 -0.027269047 14362416
1.524 0.055857606 -0.093771875 8527392
1.5779999 -0.16666661 -0.035836991 3615014
1.498 0.10091958 -0.021905173 12723754
1.5700001 -0.17343639 -0.012800199 9463912
1.498 -0.0032194601 -0.046135146 15415874
1.484 0.12636764 -0.036102567 14043731
1.574 -0.13570763 -0.04847578 8004142
1.562 -0.094268091 -0.025367558 12852770
1.566 -0.064128198 -0.068493292 9642532
1.498 0.15662186 -0.09459509 2498846
1.5089999 0.052868206 -0.029388394 15874375
1.5089999 0.045549337 -0.019625235 13905205
1.52 -0.01063896 -0.066481352 3809313
1.524 0.028755007 -0.091306821 6886164
1.531 0.058589358 -0.047151472 15805244
1.636 -0.12782845 -0.071554929 6369834
1.55 -0.0058371243 0.012433927 9512996
1.516 0.075171903 -0.02707261 14102065
1.48 0.12124156 -0.036005255 13972797
1.554 -0.073686287 -0.012669751 15612486
1.627 -0.082408533 0.036736492 6824995
1.566 -0.081850618 -0.033031479 11342871
1.466 0.091653444 -0.054634564 16595780
1.558 -0.076394796 -0.030342689 14431802
1.5779999 -0.16156426 -0.025627404 4003604
1.566 -0.056532871 0.010029291 12460843
1.498 0.16873105 -0.070365116 7630961
1.498 0.15662186 -0.060673129 11510669
1.494 0.15620364 -0.091925971 3353901
1.598 -0.14036039 0.051590167 5119265
1.558 -0.081432484 0.009978055 11608101
1.598 -0.1171088 0.03608169 7607831
1.574 -0.15097588 -0.0077409586 13972019
1.598 -0.11452529 0.033496946 7868690
1.494 0.15137289 -0.072593756 8286294
1.5089999 0.040670093 -0.019625235 13970228
1.513 0.079915322 -0.073516965 5177344
1.59 -0.13451655 0.02818564 10294810
1.524 0.14455703 -0.019820318 9783879
1.558 -0.086470164 -0.025302596 13510700
1.531 0.016511135 -0.0075294841 13378093
1.566 -0.17046273 -0.0026356417 11166056
1.4910001 0.15106894 -0.091741383 4208693
1.513 0.12639101 -0.019677257 13058631
1.516 0.070270024 -0.078566961 2689292
1.55 -0.08853206 0.012433927 12660530
1.52 0.10977393 -0.10336008 9056046
1.494 0.14171141 -0.084676392 8743008
1.505 0.13058902 -0.099905759 4207151
1.586 -0.029049678 0.015288051 9972267
1.5700001 -0.16074517 0.025291646 9908540
1.562 -0.11699586 -0.025367558 13379371
1.502 0.13275702 -0.09727715 4867651
1.539 0.031526152 0.0073670573 8922659
1.574 -0.1560653 -0.02810837 3478289
1.494 0.13688067 -0.084676392 7357248
1.531 -0.045368608 -0.024864104 13574442
1.527 0.013999274 -0.034678761 15348800
1.4910001 0.13901633 -0.057977933 12278356
1.47 0.096656665 -0.071427591 8982551
1.531 -0.047843799 -0.042198725 11474197
1.5779999 -0.049312547 -0.084332518 4595741
1.446 0.10910521 -0.056228098 16407164
1.505 -0.029999211 -0.034179132 15676477
1.558 -0.096545525 -0.012702364 15155531
1.527 0.013999274 -0.01244962 13838642
1.6059999 -0.032012448 0.020676211 8596265
1.566 -0.086914167 -0.048229396 12298401
1.574 -0.13061821 0.012626452 13052200
1.48 0.087743238 -0.064731844 14956863
1.539 0.021573657 0.0073670573 8790044
1.52 0.063083217 -0.017309714 13643826
1.513 -0.025266496 -0.049044371 9702925
1.586 -0.067511313 0.020418724 10100256
1.52 0.11714614 -0.10827725 9053732
1.6569999 -0.097322531 -0.080513954 5122339
1.535 -0.047968797 -0.047274664 7735305
1.535 0.06370575 -0.054723199 15347520
1.4910001 0.085984863 -0.065212958 13707311
1.516 0.070270024 -0.081019074 3349791
1.516 0.067819089 -0.02707261 14892349
1.527 -0.018094122 -0.064317614 4269862
1.546 -0.038314786 -0.0026019809 13578809
1.527 -0.005750509 -0.074197233 5511194
1.513 0.1728667 -0.049044371 4273465
1.535 -0.00081732293 -0.077068798 6824997
1.61 -0.13100277 0.044165112 6297879
1.59 -0.065111004 0.020470221 9705755
1.527 -0.020562846 -0.0099797165 12984105
1.516 0.028604062 -0.024620498 14495537
1.498 0.13966899 -0.041289151 12340299
1.505 -0.020266591 -0.029310493 15151675
1.4529999 0.10728429 -0.049449664 16069705
1.543 -0.048218798 -0.015075853 15482693
1.487 0.13143122 -0.084279649 6763828
1.513 0.16797452 -0.05638615 5190196
1.527 0.068311177 -0.042088475 15281978
1.524 0.06817697 -0.071586408 5374978
1.494 0.093403988 -0.024263209 13380914
1.5089999 0.12361724 -0.097730502 6770257
1.505 0.08435908 -0.082865521 4204330
1.52 0.050796185 -0.059105609 12652830
1.562 -0.11194524 -0.005155426 13971251
1.574 -0.14843118 -0.0026491059 13774640
